# .PCD v0.7 - Point Cloud Data file format
VERSION 0.7
FIELDS x y z rgb
SIZE 4 4 4 4
TYPE F F F F
COUNT 1 1 1 1
WIDTH 1013
HEIGHT 1
VIEWPOINT 0 0 0 1 0 0 0
POINTS 1013
DATA ascii
0.59244782 0.0073479498 0.61000025 1.0879084e-38
0.59777015 0.0072877202 0.61000031 1.0879084e-38
0.60206097 0.0072391643 0.61000031 1.0879084e-38
0.6074658 0.007178002 0.61000031 1.0879084e-38
0.61291271 0.0071163643 0.61000037 1.0879084e-38
0.61730415 0.0070666694 0.61000043 1.0879084e-38
0.62172502 0.007016642 0.61000055 1.0879084e-38
0.62729454 0.0069536171 0.61000055 1.0879084e-38
0.63290787 0.0068900944 0.61000055 1.0879084e-38
0.63743407 0.0068388749 0.61000055 1.0879084e-38
0.64176244 0.0071481438 0.61000061 1.0879084e-38
0.64657921 0.0076333047 0.61000061 1.0879084e-38
0.6523602 0.007571734 0.61000067 1.0879084e-38
0.65818763 0.0075096688 0.61000073 1.0879084e-38
0.66144758 0.0071855481 0.61124235 1.097128e-38
0.549389 0.012834546 0.61000001 1.0786889e-38
0.55237013 0.012812718 0.61000007 1.0786889e-38
0.55737019 0.012776105 0.61000007 1.0786889e-38
0.56240761 0.01273922 0.61000013 1.0786889e-38
0.56748819 0.012702019 0.61000013 1.0786889e-38
0.57260704 0.012664537 0.61000013 1.0786889e-38
0.57777017 0.012626733 0.61000013 1.0786889e-38
0.58297235 0.01258864 0.61000019 1.0879084e-38
0.58716583 0.012557934 0.61000019 1.0879084e-38
0.5924477 0.012519259 0.61000025 1.0879084e-38
0.59777021 0.012480286 0.61000031 1.0879084e-38
0.60206103 0.012448869 0.61000031 1.0879084e-38
0.6074658 0.012409292 0.61000037 1.0879084e-38
0.61291271 0.012369409 0.61000037 1.0879084e-38
0.61730415 0.012337252 0.61000037 1.0879084e-38
0.62172508 0.012304883 0.61000049 1.0879084e-38
0.62729454 0.012264103 0.61000049 1.0879084e-38
0.63290787 0.012222999 0.61000055 1.0879084e-38
0.63743407 0.012189858 0.61000055 1.0879084e-38
0.64199108 0.012156489 0.61000061 1.0879084e-38
0.64657921 0.012122895 0.61000061 1.0879084e-38
0.6523602 0.012080563 0.61000067 1.0879084e-38
0.65765828 0.011790521 0.61123222 1.0971639e-38
0.549389 0.017833881 0.61000001 1.0786889e-38
0.55237013 0.017823957 0.61000007 1.0786889e-38
0.55737019 0.017807316 0.61000007 1.0786889e-38
0.56240761 0.01779055 0.61000013 1.0786889e-38
0.56748813 0.017773639 0.61000013 1.0786889e-38
0.57260704 0.017756604 0.61000013 1.0786889e-38
0.57777017 0.017739421 0.61000013 1.0786889e-38
0.58297235 0.017722106 0.61000019 1.0786889e-38
0.58716583 0.017708149 0.61000019 1.0879084e-38
0.59244776 0.017690567 0.61000019 1.0879084e-38
0.59777021 0.017672852 0.61000025 1.0879084e-38
0.60206097 0.017658571 0.61000037 1.0879084e-38
0.6074658 0.017640583 0.61000037 1.0879084e-38
0.61291271 0.017622454 0.61000037 1.0879084e-38
0.61730415 0.017607838 0.61000043 1.0879084e-38
0.62172508 0.017593125 0.61000055 1.0879084e-38
0.62729454 0.017574586 0.61000049 1.0879084e-38
0.63290787 0.017555904 0.61000055 1.0879084e-38
0.63743407 0.017540839 0.61000055 1.0879084e-38
0.64199108 0.017525673 0.61000061 1.0879084e-38
0.64657921 0.017510403 0.61000061 1.0879084e-38
0.65207249 0.01749238 0.61034697 1.0879084e-38
0.65560865 0.015679823 0.61168957 1.0602858e-38
0.549389 0.022833213 0.61000001 1.0786889e-38
0.55237007 0.022835197 0.61000007 1.0786889e-38
0.55737013 0.022838527 0.61000007 1.0786889e-38
0.56240761 0.02284188 0.61000007 1.0786889e-38
0.56748825 0.022845261 0.61000013 1.0786889e-38
0.57260704 0.022848671 0.61000013 1.0786889e-38
0.57777023 0.022852106 0.61000013 1.0786889e-38
0.58297235 0.022855571 0.61000019 1.0786889e-38
0.58716583 0.022858361 0.61000019 1.0786889e-38
0.59244776 0.022861876 0.61000025 1.0786889e-38
0.59777021 0.022865416 0.61000019 1.0786889e-38
0.60206103 0.022868276 0.61000031 1.0786889e-38
0.6074658 0.022871874 0.61000031 1.0786889e-38
0.61291271 0.022875501 0.61000037 1.0786889e-38
0.61730415 0.022878421 0.61000043 1.0786889e-38
0.62172508 0.022881366 0.61000043 1.0879084e-38
0.6272946 0.022885073 0.61000055 1.0879084e-38
0.63290787 0.022888808 0.61000055 1.0879084e-38
0.63743407 0.022891821 0.61000055 1.0879084e-38
0.64199108 0.022894854 0.61000061 1.0879084e-38
0.64698195 0.022968294 0.6109454 1.0786889e-38
0.65061933 0.022449715 0.61000067 1.0879084e-38
0.549389 0.027832547 0.61000001 1.0786889e-38
0.55237013 0.027846439 0.61000007 1.0786889e-38
0.55737019 0.027869739 0.61000007 1.0786889e-38
0.56240761 0.02789321 0.61000013 1.0786889e-38
0.56748813 0.027916886 0.61000013 1.0786889e-38
0.57260704 0.027940735 0.61000013 1.0786889e-38
0.57777011 0.027964793 0.61000013 1.0786889e-38
0.58297235 0.027989035 0.61000019 1.0786889e-38
0.58716589 0.028008573 0.61000019 1.0786889e-38
0.59244776 0.028033184 0.61000019 1.0786889e-38
0.59777021 0.028057987 0.61000031 1.0786889e-38
0.60206097 0.028077977 0.61000037 1.0786889e-38
0.6074658 0.028103163 0.61000037 1.0786889e-38
0.61291271 0.028128544 0.61000037 1.0786889e-38
0.61730415 0.028149007 0.61000043 1.0786889e-38
0.62172502 0.028169608 0.61000043 1.0786889e-38
0.62729454 0.028195556 0.61000049 1.0786889e-38
0.63268232 0.027864834 0.61000049 1.0786889e-38
0.63743407 0.027350971 0.61000055 1.0786889e-38
0.64199108 0.027369173 0.61000061 1.0786889e-38
0.64596081 0.027381349 0.61075324 1.097128e-38
0.549389 0.032831881 0.61000001 1.0786889e-38
0.55237013 0.032857683 0.61000007 1.0786889e-38
0.55737019 0.032900948 0.61000007 1.0786889e-38
0.56240767 0.032944541 0.61000013 1.0786889e-38
0.56748825 0.032988507 0.61000013 1.0786889e-38
0.57260704 0.033032805 0.61000013 1.0786889e-38
0.57777023 0.033077482 0.61000019 1.0786889e-38
0.58297247 0.033122499 0.61000019 1.0786889e-38
0.58716583 0.03315879 0.61000019 1.0786889e-38
0.59244782 0.033204492 0.61000025 1.0786889e-38
0.59777015 0.033250555 0.61000031 1.0786889e-38
0.60206097 0.032419398 0.61000031 1.0786889e-38
0.60746586 0.032462571 0.61000037 1.0786889e-38
0.61291271 0.032506078 0.61000037 1.0786889e-38
0.61730421 0.03254116 0.61000043 1.0786889e-38
0.62172508 0.032576472 0.61000043 1.0786889e-38
0.62729454 0.032620963 0.61000055 1.0786889e-38
0.63313341 0.032133859 0.61000049 1.0786889e-38
0.63743407 0.031810123 0.61000055 1.0786889e-38
0.64224213 0.031585459 0.6106928 1.0879084e-38
0.6454283 0.031868663 0.61000061 1.0786889e-38
0.549389 0.037831217 0.61000001 1.0786889e-38
0.55237013 0.037868921 0.61000007 1.0786889e-38
0.55737019 0.037932161 0.61000007 1.0786889e-38
0.56240761 0.037995871 0.61000013 1.0786889e-38
0.56748819 0.038060129 0.61000013 1.0786889e-38
0.57260704 0.038124871 0.61000013 1.0786889e-38
0.57777023 0.038190167 0.61000019 1.0786889e-38
0.58297241 0.038255963 0.61000013 1.0786889e-38
0.58716583 0.037450634 0.61000019 1.0786889e-38
0.59244776 0.037513923 0.61000031 1.0786889e-38
0.59777015 0.037577689 0.61000031 1.0786889e-38
0.60206097 0.036760818 0.61000031 1.0786889e-38
0.6074658 0.03682198 0.61000031 1.0786889e-38
0.61291271 0.036883622 0.61000037 1.0786889e-38
0.61730415 0.036933314 0.61000043 1.0786889e-38
0.62172502 0.036983341 0.61000043 1.0786889e-38
0.6272946 0.037046362 0.61000055 1.0786889e-38
0.63290787 0.037109885 0.61000055 1.0786889e-38
0.63743407 0.037161112 0.61000061 1.0786889e-38
0.64199108 0.037212674 0.61000061 1.0786889e-38
0.6454283 0.037251573 0.61000061 1.0786889e-38
0.549389 0.042830553 0.61000001 1.0786889e-38
0.55237013 0.042880163 0.61000007 1.0786889e-38
0.55737019 0.042963371 0.61000007 1.0786889e-38
0.56240761 0.043047205 0.61000007 1.0786889e-38
0.56748825 0.04313175 0.61000013 1.0786889e-38
0.57260704 0.043216933 0.61000013 1.0786889e-38
0.57747418 0.042810615 0.61000013 1.0786889e-38
0.58297241 0.042533852 0.61000013 1.0786889e-38
0.58716589 0.041742474 0.61000019 1.0786889e-38
0.59244776 0.041823342 0.61000019 1.0786889e-38
0.59777021 0.041904833 0.61000031 1.0786889e-38
0.60206097 0.041970521 0.61000037 1.0786889e-38
0.6074658 0.042053267 0.61000031 1.0786889e-38
0.61291271 0.042136665 0.61000037 1.0786889e-38
0.61730415 0.042203899 0.61000043 1.0786889e-38
0.62172502 0.042271584 0.61000055 1.0786889e-38
0.62729454 0.042356856 0.61000043 1.0786889e-38
0.63290787 0.042442795 0.61000055 1.0786889e-38
0.63743407 0.042512093 0.61000055 1.0786889e-38
0.64199108 0.042581856 0.61000061 1.0786889e-38
0.64600372 0.043092631 0.61000061 1.0786889e-38
0.549389 0.047829885 0.61000001 1.0786889e-38
0.55237013 0.047891397 0.61000007 1.0786889e-38
0.55737019 0.04799458 0.61000007 1.0786889e-38
0.56240761 0.048098531 0.61000013 1.0786889e-38
0.56723309 0.047986448 0.61000013 1.0786889e-38
0.5724014 0.047965009 0.61000013 1.0786889e-38
0.57802916 0.046928994 0.61000013 1.0786889e-38
0.58297241 0.046811741 0.61000013 1.0786889e-38
0.58716589 0.046892691 0.61000019 1.0786889e-38
0.5924477 0.046994649 0.61000019 1.0786889e-38
0.59777015 0.0470974 0.61000031 1.0786889e-38
0.60206097 0.047180224 0.61000031 1.0786889e-38
0.6074658 0.047284558 0.61000037 1.0786889e-38
0.61291277 0.047389705 0.61000037 1.0786889e-38
0.61730415 0.047474485 0.61000043 1.0786889e-38
0.62172508 0.047559828 0.61000043 1.0786889e-38
0.62729454 0.047667339 0.61000049 1.0786889e-38
0.63290787 0.047775701 0.61000055 1.0786889e-38
0.63743401 0.047863077 0.61000055 1.0786889e-38
0.64199108 0.047951039 0.61000061 1.0786889e-38
0.64657921 0.048039611 0.61000061 1.0786889e-38
0.650967 0.048485018 0.61000067 1.0786889e-38
0.549389 0.051162776 0.61000001 1.0786889e-38
0.55237007 0.051232226 0.61000001 1.0786889e-38
0.55737013 0.052187253 0.61000007 1.0786889e-38
0.56207037 0.052019041 0.61000007 1.0786889e-38
0.57363522 0.050028943 0.61000013 1.0786889e-38
0.57818449 0.050811119 0.61000025 1.0786889e-38
0.58297241 0.05108963 0.61000019 1.0786889e-38
0.58716589 0.051184535 0.61000019 1.0786889e-38
0.59244776 0.052165963 0.61000025 1.0786889e-38
0.59777015 0.052289963 0.61000031 1.0786889e-38
0.60206097 0.052389923 0.61000031 1.0786889e-38
0.60715592 0.052010003 0.61000031 1.0786889e-38
0.61313158 0.052297942 0.61000037 1.0786889e-38
0.61730415 0.05274507 0.61000043 1.0786889e-38
0.62172502 0.05284806 0.61000049 1.0786889e-38
0.62729454 0.052977819 0.61000049 1.0786889e-38
0.63290787 0.053108603 0.61000055 1.0786889e-38
0.63720691 0.052851725 0.61000055 1.0786889e-38
0.64199108 0.052425358 0.61000061 1.0786889e-38
0.64657921 0.052529197 0.61000061 1.0786889e-38
0.65269202 0.052280419 0.61000067 1.0786889e-38
0.6577974 0.053085238 0.61000067 1.0786889e-38
0.79830611 0.053465135 0.61000168 1.0786889e-38
0.61840564 0.056287382 0.61000049 1.0786889e-38
0.62194687 0.057790101 0.61000049 1.0786889e-38
0.62697518 0.057773404 0.61000049 1.0786889e-38
0.63290787 0.057552688 0.61000055 1.0786889e-38
0.63766116 0.057143696 0.61000055 1.0786889e-38
0.64199108 0.056899678 0.61000061 1.0786889e-38
0.64657921 0.057018787 0.61000061 1.0786889e-38
0.6523602 0.05716886 0.61000067 1.0786889e-38
0.65818769 0.057320148 0.61000067 1.0786889e-38
0.66288716 0.057442155 0.61000067 1.0786889e-38
0.66722351 0.058770627 0.61000079 1.0786889e-38
0.79759455 0.057943922 0.61000168 1.0786889e-38
0.46444339 0.060850173 0.61297578 8.3064685e-39
0.62804008 0.061555933 0.61000043 1.0786889e-38
0.63290787 0.061996773 0.61000043 1.0786889e-38
0.63743407 0.062132355 0.61000055 1.0786889e-38
0.64199108 0.062268864 0.61000061 1.0786889e-38
0.64681107 0.06207845 0.61041754 1.0786889e-38
0.6523602 0.06257946 0.61000061 1.0786889e-38
0.65818769 0.062754028 0.61000067 1.0786889e-38
0.66288716 0.062894791 0.61000067 1.0786889e-38
0.66761929 0.063036539 0.61000073 1.0786889e-38
0.67178655 0.063161373 0.61000079 1.0786889e-38
0.79263002 0.063297503 0.61000162 1.0786889e-38
0.79759461 0.062936135 0.61000162 1.0786889e-38
0.63328379 0.066157356 0.61000049 1.0786889e-38
0.63743401 0.067483336 0.61000055 1.0786889e-38
0.64199108 0.06763804 0.61000061 1.0786889e-38
0.64657921 0.067793794 0.61000067 1.0786889e-38
0.6523602 0.06799005 0.61000067 1.0786889e-38
0.6579535 0.067817375 0.61000073 1.0786889e-38
0.66288716 0.067438662 0.61000073 1.0786889e-38
0.66761923 0.06759616 0.61000079 1.0786889e-38
0.67262334 0.067213178 0.61000079 1.0786889e-38
0.67694187 0.067355946 0.61000085 1.0786889e-38
0.68161041 0.068369262 0.61000085 1.0786889e-38
0.79192388 0.067754708 0.61000156 1.0786889e-38
0.79759461 0.067928344 0.61000168 1.0786889e-38
0.64237213 0.071828529 0.61000061 1.0786889e-38
0.64657921 0.072283387 0.61000061 1.0786889e-38
0.6523602 0.072498888 0.61000067 1.0786889e-38
0.65842181 0.072180994 0.61000073 1.0786889e-38
0.66288716 0.071982525 0.61000067 1.0786889e-38
0.66761923 0.072155774 0.61000079 1.0786889e-38
0.67238426 0.072330229 0.61000079 1.0786889e-38
0.67718261 0.072505899 0.61000085 1.0786889e-38
0.68201447 0.072682805 0.61000085 1.0786889e-38
0.68663621 0.073222235 0.61000091 1.0786889e-38
0.69178045 0.074896358 0.61000097 1.0786889e-38
0.78489417 0.074469373 0.61000156 1.0786889e-38
0.78769761 0.072584569 0.61000162 1.0786889e-38
0.79192382 0.072728045 0.61000162 1.0786889e-38
0.79759461 0.072920561 0.61000162 1.0786889e-38
0.64773011 0.07502234 0.61000061 1.0786889e-38
0.65269202 0.076506354 0.61000061 1.0786889e-38
0.65818763 0.077244349 0.61000067 1.0786889e-38
0.66288716 0.077435173 0.61000067 1.0786889e-38
0.66761929 0.077627316 0.61000067 1.0786889e-38
0.67238426 0.077820793 0.61000079 1.0786889e-38
0.67718261 0.078015633 0.61000085 1.0786889e-38
0.68201447 0.077290326 0.61000085 1.0786889e-38
0.68688035 0.077484667 0.61000091 1.0786889e-38
0.69178045 0.077680379 0.61000097 1.0786889e-38
0.69671541 0.077877477 0.61000097 1.0786889e-38
0.70168531 0.078075975 0.61000097 1.0786889e-38
0.70669067 0.078275889 0.61000103 1.0786889e-38
0.71173185 0.078477226 0.61000109 1.0786889e-38
0.71680921 0.078680016 0.61000109 1.0786889e-38
0.72192323 0.078884266 0.61000109 1.0786889e-38
0.72664338 0.078755334 0.61000115 1.0786889e-38
0.73226261 0.078342259 0.61000121 1.0786889e-38
0.73748875 0.078547508 0.61000121 1.0786889e-38
0.74275315 0.078754269 0.61000127 1.0786889e-38
0.74805611 0.078962535 0.61000133 1.0786889e-38
0.75339818 0.079172336 0.61000144 1.0786889e-38
0.75742948 0.07933066 0.61000139 1.0786889e-38
0.76148558 0.079489961 0.61000144 1.0786889e-38
0.76692724 0.079703674 0.61000144 1.0786889e-38
0.7724095 0.079918981 0.6100015 1.0786889e-38
0.77931887 0.07821779 0.6100015 1.0786889e-38
0.78349769 0.077387281 0.61000156 1.0786889e-38
0.78769761 0.07754384 0.61000162 1.0786889e-38
0.79192388 0.077701382 0.61000162 1.0786889e-38
0.79759461 0.077912778 0.61000168 1.0786889e-38
0.65857792 0.081488095 0.61000067 1.0786889e-38
0.66312295 0.082535133 0.61000073 1.0786889e-38
0.66761923 0.083098851 0.61000079 1.0786889e-38
0.67238426 0.082396276 0.61000085 1.0786889e-38
0.67718261 0.082607076 0.61000085 1.0786889e-38
0.68201447 0.081897855 0.61000085 1.0786889e-38
0.68688029 0.082108386 0.61000091 1.0786889e-38
0.69178051 0.082320414 0.61000091 1.0786889e-38
0.69671535 0.082533933 0.61000103 1.0786889e-38
0.70168537 0.082748979 0.61000103 1.0786889e-38
0.70669061 0.082965545 0.61000109 1.0786889e-38
0.71173191 0.082242385 0.61000103 1.0786889e-38
0.71680927 0.082458682 0.61000109 1.0786889e-38
0.72192323 0.082676545 0.61000109 1.0786889e-38
0.72733265 0.082335591 0.61000121 1.0786889e-38
0.73226261 0.082162075 0.61000115 1.0786889e-38
0.73748875 0.082381248 0.61000127 1.0786889e-38
0.74275309 0.082602017 0.61000127 1.0786889e-38
0.74805611 0.082824402 0.61000133 1.0786889e-38
0.75313014 0.082649216 0.61000133 1.0786889e-38
0.75742948 0.082245782 0.61000139 1.0786889e-38
0.76148558 0.082413182 0.61000144 1.0786889e-38
0.76692724 0.082637765 0.61000144 1.0786889e-38
0.7724095 0.082864016 0.6100015 1.0786889e-38
0.77793288 0.08210662 0.6100015 1.0786889e-38
0.78349763 0.082332581 0.61000156 1.0786889e-38
0.78769761 0.082503118 0.61000156 1.0786889e-38
0.79192394 0.082674719 0.61000162 1.0786889e-38
0.79759461 0.082904987 0.61000162 1.0786889e-38
0.66761929 0.086746551 0.61000073 1.0786889e-38
0.67238426 0.08697176 0.61000085 1.0786889e-38
0.67718261 0.087198526 0.61000085 1.0786889e-38
0.68201447 0.087426901 0.61000085 1.0786889e-38
0.68688029 0.087656863 0.61000091 1.0786889e-38
0.69178051 0.087888449 0.61000097 1.0786889e-38
0.69646776 0.087737136 0.61000097 1.0786889e-38
0.70168531 0.087421969 0.61000097 1.0786889e-38
0.70669067 0.087655202 0.61000103 1.0786889e-38
0.71173173 0.086948812 0.61000109 1.0786889e-38
0.71680927 0.087182023 0.61000109 1.0786889e-38
0.72192329 0.08741691 0.61000109 1.0786889e-38
0.72707421 0.087653495 0.61000115 1.0786889e-38
0.73226261 0.08789181 0.61000115 1.0786889e-38
0.73722649 0.087736078 0.61000121 1.0786889e-38
0.74275315 0.087411702 0.61000127 1.0786889e-38
0.74805611 0.087651737 0.61000133 1.0786889e-38
0.75366628 0.087323733 0.61000144 1.0786889e-38
0.75742942 0.087104321 0.61000139 1.0786889e-38
0.76148552 0.087285213 0.6100015 1.0786889e-38
0.76692724 0.087527901 0.6100015 1.0786889e-38
0.7724095 0.087772407 0.6100015 1.0786889e-38
0.77765566 0.087611869 0.6100015 1.0786889e-38
0.78349769 0.087277859 0.61000156 1.0786889e-38
0.78769761 0.087462381 0.61000162 1.0786889e-38
0.79192388 0.087648056 0.61000168 1.0786889e-38
0.79759461 0.087897196 0.61000168 1.0786889e-38
0.67357963 0.090691812 0.61000085 1.0786889e-38
0.67718261 0.091789976 0.61000085 1.0786889e-38
0.68201447 0.092955925 0.61000085 1.0786889e-38
0.68663621 0.092822589 0.61000091 1.0786889e-38
0.69178045 0.092528492 0.61000091 1.0786889e-38
0.69696295 0.092231408 0.61000097 1.0786889e-38
0.70168537 0.09209498 0.61000103 1.0786889e-38
0.70669073 0.092344873 0.61000103 1.0786889e-38
0.71173173 0.092596538 0.61000115 1.0786889e-38
0.71680927 0.092850029 0.61000109 1.0786889e-38
0.72166663 0.092712954 0.61000109 1.0786889e-38
0.72707415 0.092410997 0.61000121 1.0786889e-38
0.73226261 0.092666566 0.61000121 1.0786889e-38
0.73775101 0.092361346 0.61000127 1.0786889e-38
0.74275309 0.092221387 0.61000127 1.0786889e-38
0.74805617 0.092479073 0.61000133 1.0786889e-38
0.75339824 0.092738666 0.61000139 1.0786889e-38
0.75742942 0.092934549 0.61000139 1.0786889e-38
0.76148558 0.092157245 0.61000144 1.0786889e-38
0.76692724 0.092418045 0.6100015 1.0786889e-38
0.7724095 0.09268079 0.6100015 1.0786889e-38
0.77821004 0.092367038 0.6100015 1.0786889e-38
0.78349775 0.092223167 0.61000156 1.0786889e-38
0.78769761 0.092421651 0.61000162 1.0786889e-38
0.79192382 0.092621394 0.61000162 1.0786889e-38
0.79759461 0.092889406 0.61000162 1.0786889e-38
0.68322664 0.096707314 0.61000085 1.0786889e-38
0.68712449 0.097287044 0.61000091 1.0786889e-38
0.69178051 0.097168528 0.61000091 1.0786889e-38
0.69671535 0.097434603 0.61000103 1.0786889e-38
0.70168537 0.09770257 0.61000103 1.0786889e-38
0.70669073 0.097972453 0.61000103 1.0786889e-38
0.71173191 0.097302981 0.61000103 1.0786889e-38
0.71680933 0.097573362 0.61000109 1.0786889e-38
0.72217989 0.097290009 0.61000109 1.0786889e-38
0.72707415 0.097168498 0.61000115 1.0786889e-38
0.73226261 0.097441338 0.61000127 1.0786889e-38
0.73748875 0.097716175 0.61000115 1.0786889e-38
0.74275309 0.097993016 0.61000127 1.0786889e-38
0.74805617 0.097306408 0.61000127 1.0786889e-38
0.75339818 0.097583771 0.61000139 1.0786889e-38
0.75742948 0.097793087 0.61000139 1.0786889e-38
0.76148558 0.097029276 0.61000139 1.0786889e-38
0.76669395 0.0971568 0.61063403 1.0786889e-38
0.7724095 0.097589187 0.6100015 1.0786889e-38
0.77793282 0.09787228 0.61000156 1.0786889e-38
0.78349775 0.09716846 0.61000156 1.0786889e-38
0.78769761 0.097380936 0.61000162 1.0786889e-38
0.79192388 0.097594738 0.61000162 1.0786889e-38
0.79759461 0.097881623 0.61000168 1.0786889e-38
0.69219023 0.10152295 0.61000091 1.0786889e-38
0.69671535 0.10302234 0.61000103 1.0786889e-38
0.70168531 0.10237557 0.61000097 1.0786889e-38
0.70669067 0.10266211 0.61000103 1.0786889e-38
0.71173173 0.10200941 0.61000109 1.0786889e-38
0.71680927 0.1022967 0.61000109 1.0786889e-38
0.72192329 0.10258605 0.61000109 1.0786889e-38
0.72707415 0.1028775 0.61000127 1.0786889e-38
0.73226255 0.10221611 0.61000121 1.0786889e-38
0.73748875 0.10250833 0.61000121 1.0786889e-38
0.74275315 0.10280269 0.61000127 1.0786889e-38
0.74805611 0.10213374 0.61000133 1.0786889e-38
0.75339824 0.10242888 0.61000144 1.0786889e-38
0.75742942 0.10265162 0.61000139 1.0786889e-38
0.76148558 0.10287573 0.61000139 1.0786889e-38
0.76692724 0.10219833 0.6100015 1.0786889e-38
0.7724095 0.10249757 0.6100015 1.0786889e-38
0.77793282 0.10279905 0.61000156 1.0786889e-38
0.78349775 0.10211375 0.61000156 1.0786889e-38
0.78769761 0.1023402 0.61000162 1.0786889e-38
0.79192394 0.10256807 0.61000162 1.0786889e-38
0.79759461 0.10287384 0.61000162 1.0786889e-38
0.6979534 0.10682251 0.61000103 1.0786889e-38
0.7019347 0.10669017 0.61000097 1.0786889e-38
0.70669061 0.10735177 0.61000103 1.0786889e-38
0.71173173 0.10765714 0.61000109 1.0786889e-38
0.71680927 0.1079647 0.61000109 1.0786889e-38
0.72192323 0.10732642 0.61000109 1.0786889e-38
0.72707415 0.10763501 0.61000121 1.0786889e-38
0.73226261 0.10699087 0.61000115 1.0786889e-38
0.73748875 0.1073005 0.61000115 1.0786889e-38
0.74275309 0.10761238 0.61000127 1.0786889e-38
0.74805611 0.10792654 0.61000133 1.0786889e-38
0.75339824 0.10727401 0.61000133 1.0786889e-38
0.75742948 0.10751015 0.61000139 1.0786889e-38
0.76148552 0.10774775 0.61000139 1.0786889e-38
0.76692724 0.10708847 0.6100015 1.0786889e-38
0.7724095 0.10740596 0.6100015 1.0786889e-38
0.77793282 0.10772583 0.61000156 1.0786889e-38
0.78321844 0.10763594 0.61000156 1.0786889e-38
0.78769761 0.10729948 0.61000162 1.0786889e-38
0.79192388 0.10754141 0.61000162 1.0786889e-38
0.79759455 0.10786604 0.61000168 1.0786889e-38
0.70710927 0.11175581 0.61000109 1.0786889e-38
0.71173185 0.11236357 0.61000109 1.0786889e-38
0.71680927 0.11268803 0.61000109 1.0786889e-38
0.72192329 0.11206677 0.61000109 1.0786889e-38
0.72707415 0.11239251 0.61000115 1.0786889e-38
0.73226261 0.11272061 0.61000115 1.0786889e-38
0.73722649 0.11265077 0.61000121 1.0786889e-38
0.74275315 0.11242206 0.61000127 1.0786889e-38
0.74805611 0.11275387 0.61000133 1.0786889e-38
0.75339824 0.11211912 0.61000133 1.0786889e-38
0.75742942 0.11236868 0.61000139 1.0786889e-38
0.76148558 0.11261978 0.61000139 1.0786889e-38
0.76692724 0.11295664 0.6100015 1.0786889e-38
0.7724095 0.11231436 0.6100015 1.0786889e-38
0.77793282 0.1126526 0.61000156 1.0786889e-38
0.78377706 0.11241652 0.61000156 1.0786889e-38
0.78769761 0.11225875 0.61000162 1.0786889e-38
0.79192382 0.11251474 0.61000162 1.0786889e-38
0.79759455 0.11285826 0.61000168 1.0786889e-38
0.55336589 0.11812499 0.61000001 1.0786889e-38
0.55603194 0.11888722 0.61000001 1.0786889e-38
0.71173179 0.11518743 0.61000115 1.0786889e-38
0.71680927 0.11552204 0.61000109 1.0786889e-38
0.72192323 0.11680712 0.61000109 1.0786889e-38
0.72707415 0.11715 0.61000121 1.0786889e-38
0.73226261 0.11749537 0.61000121 1.0786889e-38
0.73775101 0.11728513 0.61000121 1.0786889e-38
0.74275309 0.11723175 0.61000127 1.0786889e-38
0.74805617 0.11758122 0.61000133 1.0786889e-38
0.75339824 0.11793325 0.61000139 1.0786889e-38
0.75742948 0.11722721 0.61000139 1.0786889e-38
0.76121545 0.11716245 0.61049324 1.0786889e-38
0.76692724 0.11784679 0.6100015 1.0786889e-38
0.7724095 0.11722275 0.6100015 1.0786889e-38
0.77793288 0.11757937 0.61000156 1.0786889e-38
0.78321844 0.11752467 0.61000156 1.0786889e-38
0.78769761 0.11721802 0.61000162 1.0786889e-38
0.79192388 0.11748809 0.61000162 1.0786889e-38
0.79759461 0.11785048 0.61000168 1.0786889e-38
0.55336583 0.12230434 0.61000001 1.0786889e-38
0.55737025 0.12234381 0.61000007 1.0786889e-38
0.56220531 0.12250571 0.61000001 1.0786889e-38
0.56748825 0.12343244 0.61000007 1.0786889e-38
0.57226437 0.12409706 0.61000013 1.0786889e-38
0.57569826 0.12493896 0.61000013 1.0786889e-38
0.72836661 0.12009311 0.61000115 1.0786889e-38
0.73291343 0.12183858 0.61000127 1.0786889e-38
0.73748875 0.12263542 0.61000127 1.0786889e-38
0.74248898 0.12259977 0.61000127 1.0786889e-38
0.74805617 0.12240855 0.61000133 1.0786889e-38
0.75339824 0.12277838 0.61000133 1.0786889e-38
0.75742942 0.12208575 0.61000139 1.0786889e-38
0.76148552 0.12236384 0.61000139 1.0786889e-38
0.76692724 0.12273693 0.6100015 1.0786889e-38
0.77213436 0.12270091 0.61000144 1.0786889e-38
0.77793288 0.12250616 0.6100015 1.0786889e-38
0.78377694 0.12230895 0.61000156 1.0786889e-38
0.78769761 0.1221773 0.61000162 1.0786889e-38
0.791924 0.12246144 0.61000156 1.0786889e-38
0.79759461 0.12284269 0.61000162 1.0786889e-38
0.55237013 0.12807125 0.61000007 1.0786889e-38
0.55737031 0.12737502 0.61000007 1.0786889e-38
0.56220531 0.12688217 0.61000001 1.0786889e-38
0.56748825 0.12765878 0.61000007 1.0786889e-38
0.5726071 0.12808472 0.61000007 1.0786889e-38
0.57802916 0.12704398 0.61000013 1.0786889e-38
0.58276337 0.12756142 0.61000019 1.0786889e-38
0.58716589 0.12843774 0.61000019 1.0786889e-38
0.59244776 0.12887372 0.61000019 1.0786889e-38
0.59670103 0.12836006 0.61000025 1.0786889e-38
0.60746527 0.12880546 0.61000037 1.0786889e-38
0.61291271 0.12968743 0.61000037 1.0786889e-38
0.73748875 0.12742758 0.61000121 1.0786889e-38
0.74301732 0.12725471 0.61000127 1.0786889e-38
0.74805617 0.12723589 0.61000133 1.0786889e-38
0.75339818 0.12762348 0.61000139 1.0786889e-38
0.75742942 0.12791598 0.61000139 1.0786889e-38
0.76148558 0.12723587 0.61000139 1.0786889e-38
0.76692724 0.12762707 0.61000144 1.0786889e-38
0.77268463 0.12745142 0.6100015 1.0786889e-38
0.77793282 0.12743293 0.61000156 1.0786889e-38
0.78349775 0.12782927 0.61000162 1.0786889e-38
0.78769761 0.12713656 0.61000162 1.0786889e-38
0.79192388 0.12743478 0.61000162 1.0786889e-38
0.79759455 0.1278349 0.61000168 1.0786889e-38
0.50511873 0.13495255 0.61004919 1.0786889e-38
0.55237013 0.13308248 0.61000001 1.0786889e-38
0.55762106 0.13207926 0.61000007 1.0786889e-38
0.56240767 0.13228737 0.61000007 1.0786889e-38
0.56748819 0.13273041 0.61000007 1.0786889e-38
0.57260704 0.13317677 0.61000013 1.0786889e-38
0.57777023 0.13192278 0.61000019 1.0786889e-38
0.58297247 0.13236949 0.61000013 1.0786889e-38
0.58716583 0.13272958 0.61000019 1.0786889e-38
0.59218252 0.13294454 0.61000019 1.0786889e-38
0.59777021 0.13190933 0.61000031 1.0786889e-38
0.60206103 0.13227206 0.61000031 1.0786889e-38
0.6074658 0.13272896 0.61000037 1.0786889e-38
0.61269391 0.13282046 0.61000037 1.0786889e-38
0.61620265 0.13171217 0.61000037 1.0786889e-38
0.73880005 0.13232012 0.61000127 1.0786889e-38
0.74275321 0.13262273 0.61000127 1.0786889e-38
0.74778998 0.13262177 0.61000133 1.0786889e-38
0.75339824 0.13246861 0.61000133 1.0786889e-38
0.75742948 0.1327745 0.61000139 1.0786889e-38
0.76148552 0.1321079 0.61000139 1.0786889e-38
0.76692724 0.13251722 0.6100015 1.0786889e-38
0.7724095 0.13292958 0.61000156 1.0786889e-38
0.77793282 0.13235968 0.61000156 1.0786889e-38
0.78349769 0.13277458 0.61000156 1.0786889e-38
0.78769761 0.13209584 0.61000162 1.0786889e-38
0.79192394 0.13240811 0.61000162 1.0786889e-38
0.79759455 0.1328271 0.61000174 1.0786889e-38
0.54839951 0.13606122 0.61000001 1.0786889e-38
0.55237013 0.13809372 0.61000007 1.0786889e-38
0.55737025 0.1368793 0.61000007 1.0786889e-38
0.56240767 0.13733868 0.61000007 1.0786889e-38
0.56748825 0.13780202 0.61000013 1.0786889e-38
0.5724014 0.13791034 0.61000013 1.0786889e-38
0.57777017 0.13703544 0.61000013 1.0786889e-38
0.58297247 0.13750295 0.61000013 1.0786889e-38
0.58716583 0.13787979 0.61000019 1.0786889e-38
0.592448 0.13749152 0.61000019 1.0786889e-38
0.59777021 0.13710189 0.61000025 1.0786889e-38
0.60206103 0.13748176 0.61000031 1.0786889e-38
0.6074658 0.13796027 0.61000031 1.0786889e-38
0.61313164 0.13706048 0.61000037 1.0786889e-38
0.74319345 0.13714725 0.61000127 1.0786889e-38
0.74832225 0.13729747 0.61000133 1.0786889e-38
0.75339824 0.13731371 0.61000133 1.0786889e-38
0.75742942 0.13763306 0.61000139 1.0786889e-38
0.76121444 0.13754275 0.61000144 1.0786889e-38
0.76692724 0.13740736 0.6100015 1.0786889e-38
0.7724095 0.13783798 0.6100015 1.0786889e-38
0.77793288 0.13728647 0.61000156 1.0786889e-38
0.78349775 0.13771987 0.61000156 1.0786889e-38
0.78769761 0.1370551 0.61000162 1.0786889e-38
0.79192388 0.13738145 0.61000162 1.0786889e-38
0.79759461 0.13781932 0.61000168 1.0786889e-38
0.42398882 0.14489271 0.6105004 1.0786889e-38
0.55217099 0.1434201 0.61000001 1.0786889e-38
0.55737025 0.14191051 0.61000007 1.0786889e-38
0.56240767 0.14239003 0.61000007 1.0786889e-38
0.56748819 0.14287364 0.61000013 1.0786889e-38
0.57260704 0.14251155 0.61000013 1.0786889e-38
0.57777017 0.14214815 0.61000013 1.0786889e-38
0.58297241 0.14263642 0.61000013 1.0786889e-38
0.58716589 0.14303 0.61000019 1.0786889e-38
0.5927127 0.14204162 0.61000025 1.0786889e-38
0.59777021 0.14229445 0.61000031 1.0786889e-38
0.60206097 0.14269145 0.61000037 1.0786889e-38
0.60719436 0.14294811 0.61000037 1.0786889e-38
0.61291277 0.14194451 0.61000037 1.0786889e-38
0.74407405 0.14138919 0.61000127 1.0786889e-38
0.74805611 0.14268336 0.61000133 1.0786889e-38
0.75313014 0.14271757 0.61000139 1.0786889e-38
0.75742948 0.14249158 0.61000139 1.0786889e-38
0.76175666 0.14226356 0.61000144 1.0786889e-38
0.76692724 0.14229749 0.6100015 1.0786889e-38
0.7724095 0.14274637 0.61000156 1.0786889e-38
0.77793288 0.14221324 0.61000156 1.0786889e-38
0.78349775 0.14266516 0.61000156 1.0786889e-38
0.78769761 0.14201438 0.61000162 1.0786889e-38
0.79192394 0.14235479 0.61000162 1.0786889e-38
0.79759461 0.14281154 0.61000162 1.0786889e-38
0.46865869 0.14645617 0.61356807 1.0786889e-38
0.55217093 0.14809619 0.61000001 1.0786889e-38
0.55737031 0.14694172 0.61000007 1.0786889e-38
0.56220531 0.14708427 0.61000001 1.0786889e-38
0.56748819 0.14794526 0.61000013 1.0786889e-38
0.57281274 0.14711492 0.61000013 1.0786889e-38
0.57777017 0.14726084 0.61000013 1.0786889e-38
0.58297235 0.14776987 0.61000019 1.0786889e-38
0.58695555 0.14781599 0.61000019 1.0786889e-38
0.59244782 0.1469733 0.61000019 1.0786889e-38
0.59777021 0.147487 0.61000031 1.0786889e-38
0.60206103 0.14790116 0.61000031 1.0786889e-38
0.6074661 0.1475499 0.61000031 1.0786889e-38
0.61291271 0.14719756 0.61000037 1.0786889e-38
0.61620265 0.14926612 0.61000037 1.0786889e-38
0.74938679 0.14665949 0.61000127 1.0786889e-38
0.75366628 0.14741422 0.61000139 1.0786889e-38
0.75742942 0.1473501 0.61000139 1.0786889e-38
0.76148558 0.14769842 0.61000139 1.0786889e-38
0.76692724 0.14718764 0.61000144 1.0786889e-38
0.7724095 0.14765476 0.6100015 1.0786889e-38
0.77793288 0.14714001 0.61000156 1.0786889e-38
0.78349775 0.14761047 0.61000156 1.0786889e-38
0.78769761 0.14796551 0.61000162 1.0786889e-38
0.79192388 0.14732812 0.61000168 1.0786889e-38
0.79759461 0.14780375 0.61000168 1.0786889e-38
0.55237013 0.15312745 0.61000007 1.0786889e-38
0.55737019 0.15197293 0.61000007 1.0786889e-38
0.56240767 0.15249269 0.61000007 1.0786889e-38
0.56748819 0.15301687 0.61000013 1.0786889e-38
0.5726071 0.15184766 0.61000013 1.0786889e-38
0.57777023 0.15237351 0.61000013 1.0786889e-38
0.58297241 0.15290333 0.61000019 1.0786889e-38
0.58716589 0.15247136 0.61000019 1.0786889e-38
0.59244776 0.15214461 0.61000019 1.0786889e-38
0.59777021 0.15267956 0.61000031 1.0786889e-38
0.60206097 0.15311086 0.61000031 1.0786889e-38
0.607737 0.15215486 0.61000037 1.0786889e-38
0.61291271 0.15245061 0.61000037 1.0786889e-38
0.61730421 0.15288617 0.61000037 1.0786889e-38
0.62061614 0.15497592 0.61000043 1.0786889e-38
0.75366628 0.15245493 0.61000139 1.0786889e-38
0.75742948 0.15220863 0.61000139 1.0786889e-38
0.76148558 0.15257044 0.61000139 1.0786889e-38
0.76692724 0.15207778 0.6100015 1.0786889e-38
0.7724095 0.15256314 0.6100015 1.0786889e-38
0.77765566 0.15263309 0.61000156 1.0786889e-38
0.78349775 0.15255576 0.61000156 1.0786889e-38
0.78769761 0.15292478 0.61000162 1.0786889e-38
0.79192382 0.15230148 0.61000162 1.0786889e-38
0.79759461 0.15279597 0.61000162 1.0786889e-38
0.55187219 0.15850259 0.61000001 1.0786889e-38
0.55711919 0.15676728 0.61000007 1.0786889e-38
0.56240767 0.15754402 0.61000007 1.0786889e-38
0.56723309 0.15784951 0.61000007 1.0786889e-38
0.57260704 0.15693974 0.61000013 1.0786889e-38
0.57777017 0.1574862 0.61000013 1.0786889e-38
0.58297241 0.1580368 0.61000013 1.0786889e-38
0.58737624 0.15712894 0.61000025 1.0786889e-38
0.59244776 0.15731591 0.61000019 1.0786889e-38
0.59777021 0.15787213 0.61000031 1.0786889e-38
0.60184574 0.15795048 0.61000031 1.0786889e-38
0.6074658 0.15714166 0.61000037 1.0786889e-38
0.61291271 0.15770365 0.61000037 1.0786889e-38
0.61708385 0.15778235 0.61000043 1.0786889e-38
0.62172508 0.1577315 0.61000049 1.0786889e-38
0.62729454 0.15830244 0.61000049 1.0786889e-38
0.63290787 0.15887788 0.61000049 1.0786889e-38
0.75384504 0.15802753 0.61000139 1.0786889e-38
0.75742942 0.15706716 0.61000139 1.0786889e-38
0.76148552 0.15744247 0.61000144 1.0786889e-38
0.76665413 0.15752912 0.6100015 1.0786889e-38
0.77287263 0.15792461 0.61082441 1.0786889e-38
0.77820998 0.1574126 0.61000156 1.0786889e-38
0.78349775 0.15750104 0.61000162 1.0786889e-38
0.78769761 0.15788406 0.61000162 1.0786889e-38
0.79192388 0.15727481 0.61000162 1.0786889e-38
0.79759467 0.15778819 0.61000168 1.0786889e-38
0.55237013 0.16314994 0.61000007 1.0786889e-38
0.55737031 0.16203535 0.61000007 1.0786889e-38
0.56240767 0.16259535 0.61000007 1.0786889e-38
0.56748819 0.1625957 0.61000013 1.0786889e-38
0.5726071 0.1620318 0.61000013 1.0786889e-38
0.57777017 0.16259888 0.61000013 1.0786889e-38
0.58297241 0.16317026 0.61000019 1.0786889e-38
0.58716589 0.16191413 0.61000019 1.0786889e-38
0.59244776 0.16248721 0.61000019 1.0786889e-38
0.59777021 0.1630647 0.61000031 1.0786889e-38
0.60227621 0.16216381 0.61000031 1.0786889e-38
0.60746586 0.16237295 0.61000037 1.0786889e-38
0.61291277 0.16295668 0.61000037 1.0786889e-38
0.61752445 0.16204485 0.61000049 1.0786889e-38
0.62172508 0.16213837 0.61000049 1.0786889e-38
0.62729454 0.16272786 0.61000049 1.0786889e-38
0.63268232 0.16294226 0.61000049 1.0786889e-38
0.63743407 0.16201736 0.61000055 1.0786889e-38
0.64176244 0.16282794 0.61000061 1.0786889e-38
0.64619559 0.16413021 0.61000061 1.0786889e-38
0.6552251 0.16389956 0.61079663 1.0786889e-38
0.73880005 0.1649365 0.61000127 1.0786889e-38
0.74407405 0.16353396 0.61000127 1.0786889e-38
0.74832231 0.16240421 0.61000133 1.0786889e-38
0.75339824 0.16250829 0.61000139 1.0786889e-38
0.75742942 0.16289741 0.61000139 1.0786889e-38
0.76148552 0.16231449 0.61000139 1.0786889e-38
0.76720035 0.16227493 0.61000144 1.0786889e-38
0.7724095 0.16237992 0.6100015 1.0786889e-38
0.77765572 0.16248479 0.6100015 1.0786889e-38
0.78349775 0.16244635 0.61000156 1.0786889e-38
0.78769761 0.16284333 0.61000162 1.0786889e-38
0.79192394 0.16224813 0.61000162 1.0786889e-38
0.79759461 0.16278039 0.61000168 1.0786889e-38
0.55237013 0.16816117 0.61000007 1.0786889e-38
0.55737031 0.16706657 0.61000007 1.0786889e-38
0.56240767 0.16764666 0.61000007 1.0786889e-38
0.56748825 0.16766733 0.61000013 1.0786889e-38
0.57260704 0.16712387 0.61000013 1.0786889e-38
0.57777017 0.16771157 0.61000013 1.0786889e-38
0.58276343 0.16793744 0.61000013 1.0786889e-38
0.58716589 0.16706432 0.61000019 1.0786889e-38
0.5924477 0.16765851 0.61000019 1.0786889e-38
0.59755641 0.16788676 0.61000031 1.0786889e-38
0.60206103 0.16700341 0.61000031 1.0786889e-38
0.6074658 0.16760424 0.61000037 1.0786889e-38
0.61269391 0.16783492 0.61000037 1.0786889e-38
0.61730415 0.16694105 0.61000043 1.0786889e-38
0.62172502 0.16742663 0.61000049 1.0786889e-38
0.62701482 0.16778596 0.61000043 1.0786889e-38
0.63313341 0.16725692 0.61000049 1.0786889e-38
0.63743407 0.16736834 0.61000055 1.0786889e-38
0.64199108 0.16786277 0.61000061 1.0786889e-38
0.64657921 0.16746269 0.61000061 1.0786889e-38
0.6523602 0.16718432 0.61000067 1.0786889e-38
0.6579535 0.16814633 0.61000067 1.0786889e-38
0.66288716 0.1683125 0.61000073 1.0786889e-38
0.66761929 0.16881967 0.61000073 1.0786889e-38
0.72192323 0.16895103 0.61000115 1.0786889e-38
0.72750497 0.16889203 0.61000115 1.0786889e-38
0.73226255 0.16810705 0.61000127 1.0786889e-38
0.73748875 0.16768175 0.61000121 1.0786889e-38
0.74275309 0.16725247 0.61000127 1.0786889e-38
0.74805617 0.16778547 0.61000133 1.0786889e-38
0.75339824 0.16735342 0.61000133 1.0786889e-38
0.75742948 0.16775593 0.61000139 1.0786889e-38
0.76148552 0.16718654 0.61000139 1.0786889e-38
0.76692724 0.16772626 0.6100015 1.0786889e-38
0.7724095 0.16728832 0.6100015 1.0786889e-38
0.77821004 0.16726801 0.61000156 1.0786889e-38
0.78349775 0.16739164 0.61000162 1.0786889e-38
0.78769761 0.16780262 0.61000162 1.0786889e-38
0.79192388 0.16722149 0.61000168 1.0786889e-38
0.79759467 0.16777262 0.61000168 1.0786889e-38
0.55237007 0.17317241 0.61000007 1.0786889e-38
0.55737019 0.17209776 0.61000007 1.0786889e-38
0.56220531 0.17301092 0.61000001 1.0786889e-38
0.56748825 0.17273895 0.61000007 1.0786889e-38
0.5726071 0.17221594 0.61000007 1.0786889e-38
0.57777017 0.17282426 0.61000013 1.0786889e-38
0.58318138 0.17209235 0.61000013 1.0786889e-38
0.58716583 0.17221455 0.61000019 1.0786889e-38
0.59244776 0.17282984 0.61000019 1.0786889e-38
0.59798396 0.17208949 0.61000031 1.0786889e-38
0.60206103 0.17221309 0.61000031 1.0786889e-38
0.6074658 0.17283553 0.61000037 1.0786889e-38
0.61313164 0.1720866 0.61000037 1.0786889e-38
0.61730415 0.17221165 0.61000043 1.0786889e-38
0.62172508 0.17271484 0.61000043 1.0786889e-38
0.62729484 0.17246266 0.61000043 1.0786889e-38
0.63290793 0.17221014 0.61000055 1.0786889e-38
0.63743407 0.17271931 0.61000055 1.0786889e-38
0.64176244 0.17284802 0.61000061 1.0786889e-38
0.64657921 0.17195229 0.61000061 1.0786889e-38
0.6523602 0.1725949 0.61000067 1.0786889e-38
0.6579535 0.17285413 0.61000073 1.0786889e-38
0.66288716 0.1719476 0.61000067 1.0786889e-38
0.66761929 0.17246735 0.61000079 1.0786889e-38
0.67238426 0.17299069 0.61000067 1.0786889e-38
0.67718256 0.17259942 0.61000085 1.0786889e-38
0.68201447 0.17404842 0.61000085 1.0786889e-38
0.68688035 0.17458285 0.61000091 1.0786889e-38
0.6905511 0.17498603 0.61000097 1.0786889e-38
0.70293224 0.17447503 0.61000097 1.0786889e-38
0.70669067 0.17394407 0.61000103 1.0786889e-38
0.71215343 0.17296433 0.61000109 1.0786889e-38
0.71706402 0.17260656 0.61000109 1.0786889e-38
0.72192329 0.17274332 0.61000109 1.0786889e-38
0.72707421 0.172337 0.61000121 1.0786889e-38
0.73252296 0.17233656 0.61000121 1.0786889e-38
0.73748875 0.17247391 0.61000127 1.0786889e-38
0.74248898 0.17261133 0.61000127 1.0786889e-38
0.74805617 0.1726128 0.61000133 1.0786889e-38
0.75339824 0.17219853 0.61000133 1.0786889e-38
0.75742942 0.17261446 0.61000139 1.0786889e-38
0.76121449 0.17261489 0.61000144 1.0786889e-38
0.76692724 0.17261639 0.6100015 1.0786889e-38
0.7724095 0.1721967 0.6100015 1.0786889e-38
0.77793282 0.17275922 0.6100015 1.0786889e-38
0.78349769 0.17233692 0.61000156 1.0786889e-38
0.78769761 0.17276189 0.61000162 1.0786889e-38
0.79192394 0.17219482 0.61000162 1.0786889e-38
0.79759461 0.17276479 0.61000162 1.0786889e-38
0.55237013 0.17818366 0.61000007 1.0786889e-38
0.55737025 0.17712899 0.61000007 1.0786889e-38
0.56240767 0.17774932 0.61000007 1.0786889e-38
0.56748849 0.17752874 0.61000007 1.0786889e-38
0.5726071 0.17730802 0.61000013 1.0786889e-38
0.57777017 0.17793696 0.61000013 1.0786889e-38
0.58297247 0.17685951 0.61000013 1.0786889e-38
0.58716589 0.17736475 0.61000019 1.0786889e-38
0.59244776 0.17800114 0.61000019 1.0786889e-38
0.59777021 0.17691155 0.61000019 1.0786889e-38
0.60206103 0.17742282 0.61000031 1.0786889e-38
0.60719442 0.17781614 0.61000031 1.0786889e-38
0.61291271 0.17696482 0.61000037 1.0786889e-38
0.61730415 0.17748223 0.61000037 1.0786889e-38
0.62172508 0.17800312 0.61000043 1.0786889e-38
0.62757397 0.17714259 0.61000049 1.0786889e-38
0.63290787 0.17754304 0.61000055 1.0786889e-38
0.63743407 0.17807031 0.61000055 1.0786889e-38
0.64221972 0.17719539 0.61000061 1.0786889e-38
0.64657921 0.17733978 0.61000061 1.0786889e-38
0.65206981 0.17774625 0.61000067 1.0786889e-38
0.65842181 0.17725392 0.61000067 1.0786889e-38
0.66288716 0.17740025 0.61000067 1.0786889e-38
0.66761929 0.17793888 0.61000073 1.0786889e-38
0.67238426 0.17756616 0.61000085 1.0786889e-38
0.67718261 0.17719088 0.61000079 1.0786889e-38
0.68201447 0.17773445 0.61000085 1.0786889e-38
0.68663621 0.17788415 0.61000091 1.0786889e-38
0.69202632 0.17737529 0.61000091 1.0786889e-38
0.69671535 0.17752565 0.61000103 1.0786889e-38
0.70143598 0.17767625 0.61000097 1.0786889e-38
0.70694184 0.17716113 0.61000103 1.0786889e-38
0.71173185 0.17731239 0.61000103 1.0786889e-38
0.71680927 0.17787005 0.61000109 1.0786889e-38
0.72192323 0.17748368 0.61000109 1.0786889e-38
0.72707415 0.1770945 0.61000115 1.0786889e-38
0.73226261 0.17765744 0.61000127 1.0786889e-38
0.73722649 0.17781231 0.61000121 1.0786889e-38
0.74301732 0.17728455 0.61000127 1.0786889e-38
0.74805617 0.17744015 0.61000133 1.0786889e-38
0.75313008 0.17759597 0.61000144 1.0786889e-38
0.75742948 0.17747299 0.61000139 1.0786889e-38
0.7617566 0.17734869 0.61000139 1.0786889e-38
0.76692724 0.17750652 0.6100015 1.0786889e-38
0.77213436 0.17766461 0.61000144 1.0786889e-38
0.77793282 0.17768601 0.61000156 1.0786889e-38
0.78349763 0.17728223 0.61000156 1.0786889e-38
0.78769761 0.17772114 0.61000162 1.0786889e-38
0.79192388 0.17716816 0.61000168 1.0786889e-38
0.79759467 0.17775705 0.61000168 1.0786889e-38
0.55256927 0.18288665 0.61000001 1.0786889e-38
0.55737025 0.1821602 0.61000007 1.0786889e-38
0.56220531 0.18243793 0.61000001 1.0786889e-38
0.56748819 0.18231869 0.61000013 1.0786889e-38
0.5726071 0.18240009 0.61000007 1.0786889e-38
0.57751089 0.18280365 0.61000013 1.0786889e-38
0.58297247 0.18199296 0.61000013 1.0786889e-38
0.58716589 0.18251498 0.61000019 1.0786889e-38
0.59218252 0.1829236 0.61000019 1.0786889e-38
0.59777021 0.18210411 0.61000019 1.0786889e-38
0.60206103 0.18263252 0.61000031 1.0786889e-38
0.60746616 0.18242517 0.61000031 1.0786889e-38
0.61291277 0.18221785 0.61000037 1.0786889e-38
0.61730415 0.1827528 0.61000037 1.0786889e-38
0.62150329 0.18291147 0.61000043 1.0786889e-38
0.62729454 0.18219964 0.61000049 1.0786889e-38
0.63290787 0.18287595 0.61000055 1.0786889e-38
0.63743407 0.18252945 0.61000055 1.0786889e-38
0.64199108 0.1821806 0.61000055 1.0786889e-38
0.64657921 0.18272729 0.61000061 1.0786889e-38
0.65236056 0.18251324 0.61000061 1.0786889e-38
0.65818763 0.18229918 0.61000067 1.0786889e-38
0.66288716 0.18285288 0.61000067 1.0786889e-38
0.66761929 0.1824985 0.61000073 1.0786889e-38
0.67238426 0.18214165 0.61000079 1.0786889e-38
0.67718261 0.18270062 0.61000085 1.0786889e-38
0.68177205 0.18286631 0.61000085 1.0786889e-38
0.68712449 0.1823785 0.61000091 1.0786889e-38
0.69178051 0.18254511 0.61000091 1.0786889e-38
0.69646776 0.18271203 0.61000097 1.0786889e-38
0.7019347 0.18221843 0.61000097 1.0786889e-38
0.70669061 0.18238628 0.61000109 1.0786889e-38
0.71173191 0.18296011 0.61000109 1.0786889e-38
0.71680933 0.18259341 0.61000109 1.0786889e-38
0.72192329 0.18222404 0.61000109 1.0786889e-38
0.72707415 0.1828035 0.61000115 1.0786889e-38
0.73226255 0.18243222 0.61000121 1.0786889e-38
0.73775101 0.18247041 0.61000121 1.0786889e-38
0.74275309 0.18264346 0.61000127 1.0786889e-38
0.74805617 0.18226749 0.61000133 1.0786889e-38
0.75366628 0.18230546 0.61000133 1.0786889e-38
0.75742942 0.18233152 0.61000139 1.0786889e-38
0.76148558 0.182777 0.61000139 1.0786889e-38
0.76692724 0.18239668 0.61000144 1.0786889e-38
0.77268463 0.18243565 0.6100015 1.0786889e-38
0.77793288 0.18261278 0.61000156 1.0786889e-38
0.78349769 0.18222752 0.61000156 1.0786889e-38
0.78769761 0.18268043 0.61000162 1.0786889e-38
0.79192394 0.1821415 0.61000162 1.0786889e-38
0.79759461 0.18274926 0.61000162 1.0786889e-38
0.55187219 0.18772225 0.61000001 1.0786889e-38
0.55737019 0.1871914 0.61000007 1.0786889e-38
0.56220531 0.18816248 0.61000001 1.0786889e-38
0.56748825 0.18739031 0.61000013 1.0786889e-38
0.5726071 0.18749215 0.61000013 1.0786889e-38
0.57777017 0.18759333 0.61000013 1.0786889e-38
0.58297247 0.18712646 0.61000013 1.0786889e-38
0.58716589 0.18766518 0.61000019 1.0786889e-38
0.59244806 0.18748085 0.61000019 1.0786889e-38
0.59777021 0.18729669 0.61000019 1.0786889e-38
0.60206097 0.18784221 0.61000037 1.0786889e-38
0.6074658 0.18736593 0.61000031 1.0786889e-38
0.61291271 0.18747091 0.61000037 1.0786889e-38
0.61730415 0.18802339 0.61000043 1.0786889e-38
0.62194687 0.1871967 0.61000043 1.0786889e-38
0.6272946 0.1875101 0.61000043 1.0786889e-38
0.63268232 0.18782495 0.61000049 1.0786889e-38
0.63743407 0.18698859 0.61000055 1.0786889e-38
0.64199108 0.18754978 0.61000061 1.0786889e-38
0.64634907 0.18772697 0.61000061 1.0786889e-38
0.65265018 0.18728356 0.61000067 1.0786889e-38
0.65818763 0.18773304 0.61000067 1.0786889e-38
0.66265142 0.18791297 0.61000073 1.0786889e-38
0.66761929 0.18705811 0.61000073 1.0786889e-38
0.67238426 0.18763222 0.61000085 1.0786889e-38
0.67694187 0.18781368 0.61000085 1.0786889e-38
0.68225688 0.18734667 0.61000085 1.0786889e-38
0.68688035 0.18752928 0.61000091 1.0786889e-38
0.69153458 0.18771233 0.61000091 1.0786889e-38
0.69696295 0.18723992 0.61000097 1.0786889e-38
0.70168537 0.18742414 0.61000103 1.0786889e-38
0.7064395 0.18760878 0.61000109 1.0786889e-38
0.71173185 0.18766657 0.61000103 1.0786889e-38
0.71680927 0.18731673 0.61000109 1.0786889e-38
0.72192317 0.18791246 0.61000109 1.0786889e-38
0.72707421 0.18756101 0.61000115 1.0786889e-38
0.73226261 0.18720698 0.61000115 1.0786889e-38
0.73748875 0.18780883 0.61000127 1.0786889e-38
0.74275315 0.18745312 0.61000127 1.0786889e-38
0.74805617 0.18709481 0.61000133 1.0786889e-38
0.75339818 0.18770289 0.61000139 1.0786889e-38
0.75742948 0.18719006 0.61000139 1.0786889e-38
0.76148552 0.18764906 0.61000144 1.0786889e-38
0.76692724 0.18728681 0.6100015 1.0786889e-38
0.77213436 0.18747957 0.61000144 1.0786889e-38
0.77793282 0.18753955 0.61000156 1.0786889e-38
0.78349775 0.18717282 0.61000156 1.0786889e-38
0.78769761 0.1876397 0.61000162 1.0786889e-38
0.79164153 0.18767987 0.61000156 1.0786889e-38
0.79759461 0.18774146 0.61000168 1.0786889e-38
0.52270043 0.19281387 0.61259663 1.0786889e-38
0.55256927 0.19257534 0.61000001 1.0786889e-38
0.55737031 0.19222264 0.61000007 1.0786889e-38
0.56240767 0.19290334 0.61000007 1.0786889e-38
0.56774306 0.19214439 0.61000007 1.0786889e-38
0.5726071 0.19258422 0.61000007 1.0786889e-38
0.57777017 0.19270602 0.61000013 1.0786889e-38
0.58297235 0.19225991 0.61000013 1.0786889e-38
0.58716589 0.19281538 0.61000019 1.0786889e-38
0.59244776 0.19236495 0.61000019 1.0786889e-38
0.59777021 0.19248927 0.61000019 1.0786889e-38
0.60206097 0.19305193 0.61000031 1.0786889e-38
0.60773695 0.19226974 0.61000037 1.0786889e-38
0.61291277 0.19272394 0.61000037 1.0786889e-38
0.61708385 0.19291371 0.61000037 1.0786889e-38
0.62172508 0.19210507 0.61000049 1.0786889e-38
0.62729454 0.19282061 0.61000049 1.0786889e-38
0.63313341 0.19214801 0.61000049 1.0786889e-38
0.63743407 0.19233958 0.61000055 1.0786889e-38
0.64199108 0.19291897 0.61000061 1.0786889e-38
0.6468094 0.19209428 0.61000067 1.0786889e-38
0.6523602 0.19243377 0.61000061 1.0786889e-38
0.65795344 0.19277489 0.61000073 1.0786889e-38
0.66312295 0.19233316 0.61000073 1.0786889e-38
0.66761929 0.19252966 0.61000079 1.0786889e-38
0.67214519 0.19272669 0.61000079 1.0786889e-38
0.67742336 0.19228014 0.61000085 1.0786889e-38
0.68201447 0.19247854 0.61000085 1.0786889e-38
0.68663621 0.19267747 0.61000091 1.0786889e-38
0.69202632 0.19222601 0.61000091 1.0786889e-38
0.69671535 0.19242632 0.61000103 1.0786889e-38
0.70143592 0.19262719 0.61000097 1.0786889e-38
0.70694184 0.19217069 0.61000103 1.0786889e-38
0.71173191 0.19237299 0.61000109 1.0786889e-38
0.71655452 0.19257584 0.61000109 1.0786889e-38
0.72192323 0.19265281 0.61000109 1.0786889e-38
0.72707415 0.19231848 0.61000121 1.0786889e-38
0.73200226 0.19252335 0.61000121 1.0786889e-38
0.73748875 0.192601 0.61000121 1.0786889e-38
0.74275309 0.19226281 0.61000127 1.0786889e-38
0.74805617 0.19288762 0.61000133 1.0786889e-38
0.75339824 0.19254801 0.61000139 1.0786889e-38
0.75742942 0.19204859 0.61000139 1.0786889e-38
0.76148558 0.1925211 0.61000139 1.0786889e-38
0.76665413 0.1927316 0.61000144 1.0786889e-38
0.77268463 0.19225425 0.6100015 1.0786889e-38
0.77793282 0.19246632 0.61000156 1.0786889e-38
0.78321838 0.192679 0.61000156 1.0786889e-38
0.78769761 0.19259897 0.61000162 1.0786889e-38
0.79220641 0.19251783 0.61000162 1.0786889e-38
0.79759461 0.19273366 0.61000174 1.0786889e-38
0.53515148 0.19837971 0.61092412 1.0786889e-38
