# .PCD v0.7 - Point Cloud Data file format
VERSION 0.7
FIELDS x y z rgb
SIZE 4 4 4 4
TYPE F F F F
COUNT 1 1 1 1
WIDTH 1028
HEIGHT 1
VIEWPOINT 0 0 0 1 0 0 0
POINTS 1028
DATA ascii
0.47746289 0.11702663 0.60999948 1.0786889e-38
0.48188263 0.11738262 0.6099996 1.0786889e-38
0.48722899 0.11781324 0.6099996 1.0786889e-38
0.49278787 0.11768205 0.6099996 1.0786889e-38
0.49806786 0.11708812 0.60999966 1.0786889e-38
0.50264126 0.11745041 0.60999966 1.0786889e-38
0.5072521 0.11781564 0.60999966 1.0786889e-38
0.51283032 0.11744788 0.60999972 1.0786889e-38
0.51751745 0.11700478 0.60999972 1.0786889e-38
0.52224308 0.11737283 0.60999978 1.0786889e-38
0.52796096 0.11781815 0.60999984 1.0786889e-38
0.53276545 0.11819232 0.60999984 1.0786889e-38
0.53761029 0.11691888 0.6099999 1.0786889e-38
0.54249054 0.11729249 0.6099999 1.0786889e-38
0.54741216 0.11766924 0.6099999 1.0786889e-38
0.55137432 0.11797255 0.6099999 1.0786889e-38
0.35232246 0.12239219 0.60999864 1.0694693e-38
0.35747457 0.12247903 0.6099987 1.0694693e-38
0.36226535 0.12262998 0.6099987 1.0694693e-38
0.36730853 0.12239467 0.6099987 1.0786889e-38
0.37253025 0.12236411 0.6099987 1.0786889e-38
0.37738964 0.12247808 0.60999876 1.0786889e-38
0.38272429 0.122397 0.60999876 1.0786889e-38
0.38736135 0.12253553 0.60999882 1.0786889e-38
0.39249396 0.12257216 0.60999882 1.0786889e-38
0.3978259 0.12232962 0.60999894 1.0786889e-38
0.4024387 0.1227503 0.60999894 1.0786889e-38
0.40709034 0.12243602 0.60999888 1.0786889e-38
0.41238707 0.12240135 0.60999912 1.0786889e-38
0.41809803 0.12268669 0.60999912 1.0786889e-38
0.42302835 0.12258463 0.60999912 1.0786889e-38
0.42754707 0.12233205 0.60999912 1.0786889e-38
0.43257597 0.12247682 0.60999918 1.0786889e-38
0.43764988 0.12262209 0.60999918 1.0786889e-38
0.44228676 0.12236646 0.60999924 1.0786889e-38
0.44743288 0.12226142 0.6099993 1.0786889e-38
0.452472 0.12270084 0.6099993 1.0786889e-38
0.45771015 0.12259568 0.60999942 1.0786889e-38
0.46251234 0.12233533 0.6099993 1.0786889e-38
0.46785796 0.12248462 0.60999942 1.0786889e-38
0.4730781 0.12293287 0.60999942 1.0786889e-38
0.47746289 0.12252404 0.60999948 1.0786889e-38
0.48188263 0.12211234 0.6099996 1.0786889e-38
0.48722899 0.12256432 0.6099996 1.0786889e-38
0.49262375 0.12302038 0.6099996 1.0786889e-38
0.49788561 0.12218646 0.60999966 1.0786889e-38
0.5026412 0.12226302 0.60999966 1.0786889e-38
0.5072521 0.12264667 0.60999966 1.0786889e-38
0.51301742 0.12280234 0.60999972 1.0786889e-38
0.51751745 0.12187683 0.60999972 1.0786889e-38
0.52224308 0.12226374 0.60999978 1.0786889e-38
0.52796096 0.12273189 0.60999972 1.0786889e-38
0.53276545 0.12312528 0.60999978 1.0786889e-38
0.53761023 0.12187118 0.6099999 1.0786889e-38
0.54249066 0.12226427 0.6099999 1.0786889e-38
0.54741216 0.12266067 0.60999995 1.0786889e-38
0.55187225 0.12343784 0.6099999 1.0786889e-38
0.35224405 0.12738034 0.60999537 1.0694693e-38
0.35712954 0.12764512 0.6099987 1.0694693e-38
0.36226538 0.1275906 0.6099987 1.0694693e-38
0.36721256 0.12732886 0.6097914 1.0694693e-38
0.37225136 0.12743621 0.6099987 1.0786889e-38
0.37770766 0.12746271 0.60999876 1.0786889e-38
0.38272426 0.12745295 0.60999876 1.0786889e-38
0.38725051 0.12761684 0.60982329 1.0786889e-38
0.39249396 0.12767366 0.60999888 1.0786889e-38
0.39782587 0.12745596 0.60999888 1.0786889e-38
0.40228438 0.12744179 0.60999888 1.0786889e-38
0.4070904 0.1276055 0.60999894 1.0786889e-38
0.41272545 0.12754777 0.60999906 1.0786889e-38
0.41793928 0.12744465 0.60999912 1.0786889e-38
0.42288283 0.12761074 0.60999912 1.0786889e-38
0.42785531 0.12752999 0.60999918 1.0786889e-38
0.4324131 0.12729628 0.60999918 1.0786889e-38
0.43748543 0.12746385 0.60999918 1.0786889e-38
0.44260341 0.12763217 0.60999924 1.0786889e-38
0.44728079 0.1273959 0.60999924 1.0786889e-38
0.452472 0.12731308 0.6099993 1.0786889e-38
0.4575555 0.12777668 0.60999936 1.0786889e-38
0.46283996 0.12769417 0.6099993 1.0786889e-38
0.46785796 0.12715831 0.60999942 1.0786889e-38
0.4730781 0.12762743 0.60999948 1.0786889e-38
0.47746289 0.12802145 0.60999948 1.0786889e-38
0.48172128 0.12740064 0.6099996 1.0786889e-38
0.48722902 0.12731539 0.6099996 1.0786889e-38
0.49262375 0.127793 0.6099996 1.0786889e-38
0.49806762 0.12747516 0.60999966 1.0786889e-38
0.50264126 0.12707566 0.60999966 1.0786889e-38
0.50725216 0.12747772 0.60999966 1.0786889e-38
0.5128305 0.12796418 0.60999972 1.0786889e-38
0.51738298 0.12720096 0.60999972 1.0786889e-38
0.52224308 0.12715465 0.60999978 1.0786889e-38
0.5279609 0.12764564 0.60999978 1.0786889e-38
0.53276551 0.12805821 0.6099999 1.0786889e-38
0.53741586 0.12713666 0.60999984 1.0786889e-38
0.54249066 0.12723605 0.6099999 1.0786889e-38
0.54741216 0.12765211 0.60999995 1.0786889e-38
0.56341952 0.12900534 0.60999995 1.0786889e-38
0.35218179 0.13248655 0.60999864 1.0694693e-38
0.35743567 0.13253771 0.6099987 1.0694693e-38
0.36226535 0.13255124 0.6099987 1.0694693e-38
0.36714172 0.13256437 0.6099987 1.0694693e-38
0.37253025 0.13238104 0.6099987 1.0694693e-38
0.37738964 0.13254029 0.60999876 1.0694693e-38
0.38272423 0.13250893 0.60999876 1.0786889e-38
0.38734752 0.13245197 0.60999882 1.0786889e-38
0.39227733 0.13244046 0.60999882 1.0786889e-38
0.3978259 0.13258229 0.60999894 1.0786889e-38
0.40257895 0.13252483 0.60999888 1.0786889e-38
0.40694875 0.13255918 0.60999888 1.0786889e-38
0.41256836 0.13257982 0.60999912 1.0786889e-38
0.41824234 0.13259979 0.60999912 1.0786889e-38
0.42272273 0.13238832 0.60999912 1.0786889e-38
0.42770854 0.13257702 0.60999918 1.0786889e-38
0.43272409 0.13251798 0.60999918 1.0786889e-38
0.43732113 0.13230345 0.60999918 1.0786889e-38
0.44243753 0.13249424 0.60999924 1.0786889e-38
0.44760019 0.13268594 0.6099993 1.0786889e-38
0.45230335 0.13221633 0.6099993 1.0786889e-38
0.4575555 0.13240924 0.60999942 1.0786889e-38
0.46268401 0.13289741 0.60999936 1.0786889e-38
0.46770039 0.13238333 0.60999948 1.0786889e-38
0.47307813 0.13232198 0.60999948 1.0786889e-38
0.47746289 0.13273351 0.60999948 1.0786889e-38
0.48206013 0.13284922 0.6099996 1.0786889e-38
0.48722902 0.13206646 0.6099996 1.0786889e-38
0.49262381 0.1325656 0.6099996 1.0786889e-38
0.49825019 0.1327661 0.60999966 1.0786889e-38
0.50264126 0.13188827 0.60999966 1.0786889e-38
0.5072521 0.13230877 0.60999966 1.0786889e-38
0.5128305 0.13281749 0.60999972 1.0786889e-38
0.51765192 0.13279282 0.60999972 1.0786889e-38
0.52224308 0.13204557 0.60999972 1.0786889e-38
0.5279609 0.13255939 0.60999972 1.0786889e-38
0.53276545 0.13299115 0.6099999 1.0786889e-38
0.53761029 0.13232514 0.6099999 1.0786889e-38
0.5424906 0.13220783 0.6099999 1.0786889e-38
0.54741216 0.13264354 0.60999995 1.0786889e-38
0.55237013 0.13308248 0.6099999 1.0786889e-38
0.35245031 0.13734028 0.60999864 1.0694693e-38
0.35712951 0.13751854 0.6099987 1.0694693e-38
0.36226535 0.13751188 0.6099987 1.0694693e-38
0.36745313 0.1375048 0.6099987 1.0694693e-38
0.37225136 0.13745055 0.6099987 1.0694693e-38
0.37770769 0.1375279 0.60999876 1.0694693e-38
0.38272429 0.13756488 0.60999876 1.0694693e-38
0.38721111 0.13731748 0.60999882 1.0786889e-38
0.3927106 0.13748254 0.60999882 1.0786889e-38
0.39768666 0.13749398 0.60999888 1.0786889e-38
0.40243873 0.13745837 0.60999894 1.0786889e-38
0.4072462 0.13766496 0.60999888 1.0786889e-38
0.41234371 0.13743301 0.60999912 1.0786889e-38
0.41809803 0.13760325 0.60999912 1.0786889e-38
0.42302838 0.13756682 0.60999918 1.0786889e-38
0.42754713 0.13737439 0.60999912 1.0786889e-38
0.43257597 0.13758609 0.60999918 1.0786889e-38
0.43763477 0.13754912 0.60999918 1.0786889e-38
0.44227186 0.13735414 0.60999924 1.0786889e-38
0.44743288 0.1375685 0.6099993 1.0786889e-38
0.45262527 0.13753094 0.60999924 1.0786889e-38
0.45738539 0.1373333 0.6099993 1.0786889e-38
0.46268395 0.13755044 0.60999942 1.0786889e-38
0.46803126 0.13776876 0.60999948 1.0786889e-38
0.4729034 0.13731194 0.60999948 1.0786889e-38
0.47746289 0.13744558 0.60999954 1.0786889e-38
0.48188263 0.13787806 0.6099996 1.0786889e-38
0.48706615 0.13737728 0.6099996 1.0786889e-38
0.49262381 0.13733824 0.6099996 1.0786889e-38
0.4980678 0.1378637 0.60999966 1.0786889e-38
0.50264126 0.13750301 0.60999966 1.0786889e-38
0.5072521 0.13713981 0.60999966 1.0786889e-38
0.5128305 0.13767081 0.60999972 1.0786889e-38
0.51751739 0.13811696 0.60999972 1.0786889e-38
0.52224308 0.13693649 0.60999972 1.0786889e-38
0.52796096 0.13747315 0.60999972 1.0786889e-38
0.53276545 0.13792409 0.6099999 1.0786889e-38
0.53761029 0.13727744 0.6099999 1.0786889e-38
0.54249066 0.13717961 0.6099999 1.0786889e-38
0.54712999 0.13808464 0.60999995 1.0786889e-38
0.35219446 0.14254509 0.60999864 1.0694693e-38
0.35743567 0.14241396 0.6099987 1.0694693e-38
0.36226535 0.14247252 0.6099987 1.0694693e-38
0.36714169 0.14253105 0.6099987 1.0694693e-38
0.37253025 0.14239797 0.6099987 1.0694693e-38
0.37732658 0.14243099 0.60999876 1.0694693e-38
0.38272423 0.14262085 0.60999876 1.0694693e-38
0.38721105 0.14239435 0.60999876 1.0694693e-38
0.39231917 0.14245392 0.60999882 1.0694693e-38
0.39797908 0.14255844 0.60999888 1.0786889e-38
0.40243867 0.14260618 0.60999888 1.0786889e-38
0.4070904 0.14237551 0.60999894 1.0786889e-38
0.41279301 0.14256957 0.60999906 1.0786889e-38
0.41793928 0.14235911 0.60999912 1.0786889e-38
0.42288283 0.14259101 0.60999912 1.0786889e-38
0.42785537 0.14257644 0.60999918 1.0786889e-38
0.4324131 0.14240339 0.60999918 1.0786889e-38
0.43748537 0.1426385 0.60999918 1.0786889e-38
0.44258815 0.14262398 0.60999924 1.0786889e-38
0.44743294 0.14216064 0.60999924 1.0786889e-38
0.452472 0.14268726 0.60999924 1.0786889e-38
0.45771015 0.14267276 0.60999936 1.0786889e-38
0.46268401 0.14220349 0.60999942 1.0786889e-38
0.46785796 0.14273733 0.60999942 1.0786889e-38
0.47307792 0.14249279 0.60999948 1.0786889e-38
0.47746289 0.14215763 0.60999948 1.0786889e-38
0.48188263 0.14260776 0.6099996 1.0786889e-38
0.4874081 0.14285332 0.6099996 1.0786889e-38
0.49262381 0.14211085 0.6099996 1.0786889e-38
0.4980678 0.14265805 0.60999966 1.0786889e-38
0.50264126 0.14311774 0.60999966 1.0786889e-38
0.50725216 0.14197086 0.60999966 1.0786889e-38
0.5128305 0.14252414 0.60999972 1.0786889e-38
0.51751751 0.14298901 0.60999972 1.0786889e-38
0.52205342 0.1421344 0.60999972 1.0786889e-38
0.5279609 0.1423869 0.60999978 1.0786889e-38
0.53276545 0.14285703 0.6099999 1.0786889e-38
0.53761005 0.14250495 0.60999984 1.0786889e-38
0.54249066 0.1421514 0.6099999 1.0786889e-38
0.54741216 0.14262643 0.6099999 1.0786889e-38
0.55336595 0.14152935 0.6099999 1.0786889e-38
0.35246319 0.14740133 0.60999864 1.0694693e-38
0.3572717 0.14755012 0.6099987 1.0694693e-38
0.36226538 0.14743315 0.6099987 1.0694693e-38
0.36745319 0.14747436 0.6099987 1.0694693e-38
0.37225136 0.14746487 0.6099987 1.0694693e-38
0.37774804 0.14740808 0.60999876 1.0694693e-38
0.38258877 0.14746386 0.60999876 1.0694693e-38
0.38721108 0.14747123 0.60999882 1.0694693e-38
0.39264545 0.14751361 0.60999882 1.0694693e-38
0.39767289 0.14750403 0.60999888 1.0694693e-38
0.40243876 0.14775401 0.60999894 1.0786889e-38
0.40709034 0.14754501 0.60999888 1.0786889e-38
0.41256842 0.14742275 0.60999912 1.0786889e-38
0.41824234 0.14751825 0.60999912 1.0786889e-38
0.42272267 0.14736643 0.60999912 1.0786889e-38
0.42770857 0.14762153 0.60999912 1.0786889e-38
0.432724 0.14762925 0.60999918 1.0786889e-38
0.43748543 0.1471909 0.60999918 1.0786889e-38
0.44243753 0.14773482 0.60999924 1.0786889e-38
0.44728076 0.14729248 0.60999924 1.0786889e-38
0.45247194 0.14729951 0.6099993 1.0786889e-38
0.4575555 0.14785108 0.60999936 1.0786889e-38
0.46252775 0.14740337 0.60999936 1.0786889e-38
0.46785796 0.14741103 0.60999942 1.0786889e-38
0.47325295 0.14767578 0.60999948 1.0786889e-38
0.47733715 0.14730485 0.6099996 1.0786889e-38
0.48188263 0.14733748 0.6099996 1.0786889e-38
0.48746753 0.14770178 0.60961068 1.0786889e-38
0.49244317 0.14718229 0.6099996 1.0786889e-38
0.4980678 0.14745241 0.60999966 1.0786889e-38
0.50264126 0.14793037 0.60999966 1.0786889e-38
0.50706708 0.14710437 0.60999966 1.0786889e-38
0.5128305 0.14737746 0.60999972 1.0786889e-38
0.51751751 0.14786103 0.60999972 1.0786889e-38
0.52224284 0.1475327 0.60999972 1.0786889e-38
0.5279609 0.14730066 0.60999972 1.0786889e-38
0.53276545 0.14778997 0.60999984 1.0786889e-38
0.53761029 0.14773227 0.6099999 1.0786889e-38
0.54249066 0.14712317 0.6099999 1.0786889e-38
0.54741216 0.14761785 0.60999995 1.0786889e-38
0.55336595 0.14821631 0.6099999 1.0786889e-38
0.56341952 0.14922684 0.60999995 1.0786889e-38
0.6155715 0.14739047 0.60566872 1.0786889e-38
0.35232243 0.15258004 0.60999864 1.0694693e-38
0.35727167 0.15248747 0.6099987 1.0694693e-38
0.36226538 0.15239377 0.6099987 1.0694693e-38
0.36714169 0.15249778 0.6099987 1.0694693e-38
0.37253019 0.15241489 0.6099987 1.0694693e-38
0.37732655 0.15249263 0.60999876 1.0694693e-38
0.38287324 0.15246141 0.60999876 1.0694693e-38
0.38721105 0.15254809 0.60999876 1.0694693e-38
0.39249396 0.1524523 0.60999888 1.0694693e-38
0.39796504 0.15257122 0.60999888 1.0694693e-38
0.40228432 0.15244201 0.60999888 1.0694693e-38
0.40709043 0.15271451 0.60999894 1.0786889e-38
0.41241091 0.15245059 0.60999906 1.0786889e-38
0.41809803 0.15251978 0.60999912 1.0786889e-38
0.42302835 0.15254898 0.60999912 1.0786889e-38
0.42754707 0.15241674 0.60999918 1.0786889e-38
0.43257597 0.15269539 0.60999918 1.0786889e-38
0.43748543 0.15250202 0.60999918 1.0786889e-38
0.4424375 0.15230697 0.60999924 1.0786889e-38
0.44760022 0.15258804 0.60999924 1.0786889e-38
0.45231849 0.15245317 0.60999924 1.0786889e-38
0.4575555 0.15248364 0.60999942 1.0786889e-38
0.46285573 0.15276922 0.6099993 1.0786889e-38
0.46785796 0.15208472 0.60999942 1.0786889e-38
0.4730781 0.15266503 0.60999948 1.0786889e-38
0.47758868 0.15271734 0.60999954 1.0786889e-38
0.48188263 0.15206721 0.6099996 1.0786889e-38
0.48722899 0.15265441 0.6099996 1.0786889e-38
0.49262351 0.15245077 0.6099996 1.0786889e-38
0.4980678 0.15224677 0.60999966 1.0786889e-38
0.50264126 0.152743 0.60999966 1.0786889e-38
0.50725198 0.15243736 0.60999966 1.0786889e-38
0.5128305 0.1522308 0.60999972 1.0786889e-38
0.51751745 0.15273309 0.60999972 1.0786889e-38
0.52224314 0.15269527 0.60999972 1.0786889e-38
0.52796096 0.15221439 0.60999972 1.0786889e-38
0.53276545 0.15272291 0.6099999 1.0786889e-38
0.53761023 0.15268455 0.6099999 1.0786889e-38
0.54249066 0.15209496 0.6099999 1.0786889e-38
0.54741216 0.15260929 0.6099999 1.0786889e-38
0.35232246 0.15749437 0.60999864 1.0694693e-38
0.35727164 0.15742484 0.6099987 1.0694693e-38
0.36226538 0.15735441 0.6099987 1.0694693e-38
0.36745316 0.157444 0.6099987 1.0694693e-38
0.37225139 0.1574792 0.60999876 1.0694693e-38
0.37774804 0.15747364 0.60999876 1.0694693e-38
0.38258877 0.15757452 0.60999876 1.0694693e-38
0.38721105 0.15762496 0.60999882 1.0694693e-38
0.39234221 0.15738893 0.60999882 1.0694693e-38
0.39782587 0.15748161 0.60999894 1.0694693e-38
0.40257901 0.15753172 0.60999888 1.0694693e-38
0.40693474 0.15742154 0.60999888 1.0694693e-38
0.41274998 0.15760607 0.60999912 1.0694693e-38
0.41795358 0.15751939 0.60999912 1.0786889e-38
0.42288283 0.15757124 0.60999918 1.0786889e-38
0.42785537 0.15762289 0.60999918 1.0786889e-38
0.43257591 0.15722817 0.60999918 1.0786889e-38
0.43748537 0.15781316 0.60999918 1.0786889e-38
0.4422867 0.15741518 0.60999924 1.0786889e-38
0.44743288 0.15746772 0.60999924 1.0786889e-38
0.45264083 0.15777339 0.60999924 1.0786889e-38
0.4575555 0.1571162 0.60999936 1.0786889e-38
0.46268395 0.15771361 0.60999942 1.0786889e-38
0.46770036 0.15730637 0.60999948 1.0786889e-38
0.4730781 0.15735957 0.60999942 1.0786889e-38
0.47746292 0.15786453 0.6099996 1.0786889e-38
0.48172122 0.15735143 0.6099996 1.0786889e-38
0.48722899 0.15740548 0.6099996 1.0786889e-38
0.49280447 0.15772147 0.6099996 1.0786889e-38
0.4980678 0.15704113 0.60999966 1.0786889e-38
0.5026412 0.15755561 0.60999966 1.0786889e-38
0.50742048 0.15773411 0.60978198 1.0786889e-38
0.5128305 0.15708409 0.60999972 1.0786889e-38
0.51751745 0.15760513 0.60999972 1.0786889e-38
0.52243292 0.15782498 0.60999972 1.0786889e-38
0.52796102 0.15712816 0.60999972 1.0786889e-38
0.53276545 0.15765585 0.6099999 1.0786889e-38
0.53761023 0.15763685 0.6099999 1.0786889e-38
0.5424906 0.15706675 0.6099999 1.0786889e-38
0.54741216 0.15760075 0.60999995 1.0786889e-38
0.55336595 0.15741087 0.6099999 1.0786889e-38
0.55937874 0.15889916 0.60999995 1.0786889e-38
0.35232246 0.16240866 0.60999864 1.0694693e-38
0.35710794 0.16255713 0.6099987 1.0694693e-38
0.36226538 0.16231503 0.6099987 1.0694693e-38
0.36714169 0.16246448 0.6099987 1.0694693e-38
0.37253025 0.16243181 0.6099987 1.0694693e-38
0.37732655 0.16255425 0.60999876 1.0694693e-38
0.3828733 0.16257474 0.60999876 1.0694693e-38
0.38707447 0.16248611 0.60999876 1.0694693e-38
0.39266908 0.16245307 0.60999882 1.0694693e-38
0.3976866 0.16239014 0.60999888 1.0694693e-38
0.40243876 0.16246207 0.60999894 1.0694693e-38
0.4072319 0.16253401 0.60999888 1.0694693e-38
0.4123871 0.16247074 0.60999912 1.0694693e-38
0.41825691 0.16268261 0.60999912 1.0694693e-38
0.42272273 0.16234457 0.60999912 1.0786889e-38
0.42770854 0.16266602 0.60999912 1.0786889e-38
0.43257591 0.16251643 0.60999918 1.0786889e-38
0.43748537 0.16236557 0.60999918 1.0786889e-38
0.44260341 0.16269055 0.60999924 1.0786889e-38
0.44726577 0.16234516 0.60999924 1.0786889e-38
0.452472 0.16267368 0.6099993 1.0786889e-38
0.45740068 0.1622912 0.60999936 1.0786889e-38
0.46268395 0.16236666 0.60999936 1.0786889e-38
0.46803126 0.16269886 0.60999954 1.0786889e-38
0.4729034 0.16234583 0.60999948 1.0786889e-38
0.47746289 0.16257657 0.60999948 1.0786889e-38
0.4820601 0.16280857 0.6099996 1.0786889e-38
0.48722902 0.16215654 0.6099996 1.0786889e-38
0.49262375 0.16279216 0.6099996 1.0786889e-38
0.49788561 0.16213341 0.60999966 1.0786889e-38
0.50264126 0.16236825 0.60999966 1.0786889e-38
0.50725216 0.16290538 0.60999966 1.0786889e-38
0.51264387 0.16223899 0.60999966 1.0786889e-38
0.51751745 0.16247715 0.60999972 1.0786889e-38
0.52224308 0.16302139 0.60999972 1.0786889e-38
0.52796096 0.16204192 0.60999978 1.0786889e-38
0.53276545 0.16258879 0.6099999 1.0786889e-38
0.53761029 0.16258915 0.6099999 1.0786889e-38
0.54249054 0.16203852 0.6099999 1.0786889e-38
0.54741216 0.16259219 0.6099999 1.0786889e-38
0.35218176 0.16758403 0.60999864 1.0694693e-38
0.35741359 0.16745983 0.6099987 1.0694693e-38
0.36212203 0.16753919 0.6099987 1.0694693e-38
0.36745316 0.16741361 0.6099987 1.0694693e-38
0.37225142 0.16749354 0.6099987 1.0694693e-38
0.37774807 0.16753919 0.60999876 1.0694693e-38
0.38257536 0.16744697 0.60999876 1.0694693e-38
0.38736135 0.16750829 0.60999882 1.0694693e-38
0.39227733 0.16741514 0.60999882 1.0694693e-38
0.39797908 0.16746123 0.60999888 1.0694693e-38
0.40229827 0.16739056 0.60999888 1.0694693e-38
0.4070904 0.16748449 0.60999894 1.0694693e-38
0.41272545 0.1676293 0.609999 1.0694693e-38
0.41809803 0.16743633 0.60999912 1.0694693e-38
0.42302838 0.16753119 0.60999912 1.0694693e-38
0.42754707 0.16745909 0.60999912 1.0694693e-38
0.43257594 0.16780469 0.60999918 1.0786889e-38
0.43733588 0.16745034 0.60999918 1.0786889e-38
0.4424375 0.16754757 0.60999924 1.0786889e-38
0.4475849 0.16764498 0.60999924 1.0786889e-38
0.452472 0.16728593 0.6099993 1.0786889e-38
0.45772576 0.16763762 0.60999936 1.0786889e-38
0.46251234 0.16730806 0.60999948 1.0786889e-38
0.46785796 0.16766374 0.60999942 1.0786889e-38
0.47307795 0.16753039 0.60999948 1.0786889e-38
0.47746289 0.16728866 0.60999948 1.0786889e-38
0.48188263 0.16783291 0.6099996 1.0786889e-38
0.48705006 0.16720209 0.6099996 1.0786889e-38
0.49262375 0.16756479 0.6099996 1.0786889e-38
0.49806768 0.16742815 0.60999966 1.0786889e-38
0.50264126 0.16718088 0.60999966 1.0786889e-38
0.50725216 0.1677364 0.60999966 1.0786889e-38
0.5128305 0.16732918 0.60999966 1.0786889e-38
0.51751739 0.16734922 0.60999972 1.0786889e-38
0.52224302 0.16791227 0.60999972 1.0786889e-38
0.52796096 0.16695566 0.60999978 1.0786889e-38
0.53276545 0.16752173 0.60999984 1.0786889e-38
0.5378049 0.16778481 0.60999984 1.0786889e-38
0.54249066 0.16701031 0.6099999 1.0786889e-38
0.54741216 0.16758361 0.60999995 1.0786889e-38
0.35245028 0.1724467 0.60999864 1.0694693e-38
0.35706878 0.17261066 0.6099987 1.0694693e-38
0.36239567 0.1724477 0.6099987 1.0694693e-38
0.36710176 0.17261325 0.6099987 1.0694693e-38
0.37253019 0.17244874 0.60999876 1.0694693e-38
0.37736723 0.17243205 0.60999876 1.0694693e-38
0.38285962 0.17244978 0.60999876 1.0694693e-38
0.38706097 0.17239931 0.60999882 1.0694693e-38
0.39271063 0.17247108 0.60999882 1.0694693e-38
0.39767286 0.17239991 0.60999888 1.0694693e-38
0.40259314 0.17248423 0.60999888 1.0694693e-38
0.40694878 0.17243308 0.60999888 1.0694693e-38
0.41256836 0.17265572 0.60999912 1.0694693e-38
0.41795358 0.17243402 0.60999912 1.0694693e-38
0.42288285 0.17255148 0.60999918 1.0694693e-38
0.42785537 0.17266935 0.60999918 1.0694693e-38
0.43257594 0.17233747 0.60999918 1.0694693e-38
0.43764988 0.17270568 0.60999918 1.0786889e-38
0.4422718 0.17240238 0.60999924 1.0786889e-38
0.44743294 0.17277482 0.60999924 1.0786889e-38
0.45231855 0.17243691 0.60999924 1.0786889e-38
0.4575555 0.17255804 0.60999942 1.0786889e-38
0.46268383 0.17244753 0.60999948 1.0786889e-38
0.46785796 0.17233744 0.60999948 1.0786889e-38
0.47325301 0.17271712 0.60999954 1.0786889e-38
0.47746289 0.17200071 0.60999954 1.0786889e-38
0.48188263 0.17256266 0.6099996 1.0786889e-38
0.48728216 0.17255689 0.60985523 1.0694693e-38
0.49262381 0.17233741 0.6099996 1.0786889e-38
0.49825019 0.17272516 0.6099996 1.0786889e-38
0.50264126 0.17199351 0.6099996 1.0786889e-38
0.50725216 0.17256744 0.60999966 1.0786889e-38
0.51283038 0.17245218 0.60999966 1.0786889e-38
0.51751745 0.17222124 0.60999972 1.0786889e-38
0.52224314 0.17280319 0.60999972 1.0786889e-38
0.52776957 0.17217317 0.60999978 1.0786889e-38
0.53276551 0.17245467 0.60999984 1.0786889e-38
0.53761029 0.17304486 0.6099999 1.0786889e-38
0.5424906 0.17198209 0.6099999 1.0786889e-38
0.54741216 0.17257506 0.6099999 1.0786889e-38
0.56341952 0.17113344 0.60999995 1.0786889e-38
0.35219446 0.17764296 0.60999864 1.0694693e-38
0.3574746 0.17750593 0.6099987 1.0694693e-38
0.36212206 0.17745914 0.6099987 1.0694693e-38
0.36751536 0.17755486 0.6099987 1.0694693e-38
0.37225136 0.17750785 0.6099987 1.0694693e-38
0.37768471 0.17743145 0.60999876 1.0694693e-38
0.38257536 0.1775575 0.60999876 1.0694693e-38
0.38734752 0.17742415 0.60999882 1.0694693e-38
0.3923192 0.17742993 0.60999882 1.0694693e-38
0.39796504 0.17747368 0.60999888 1.0694693e-38
0.40228438 0.17744222 0.60999888 1.0694693e-38
0.40724617 0.17754957 0.60999888 1.0694693e-38
0.41234374 0.17750084 0.60999912 1.0694693e-38
0.41825691 0.17760128 0.60999912 1.0694693e-38
0.42272273 0.17732267 0.60999918 1.0694693e-38
0.42770857 0.1777105 0.60999918 1.0694693e-38
0.43242776 0.17739907 0.60999918 1.0694693e-38
0.43748537 0.17754023 0.60999918 1.0694693e-38
0.44258815 0.17768192 0.60999924 1.0694693e-38
0.44743294 0.17736693 0.60999924 1.0786889e-38
0.45264083 0.17776272 0.60999924 1.0786889e-38
0.4575555 0.1771906 0.60999936 1.0786889e-38
0.46285573 0.17758912 0.6099993 1.0786889e-38
0.46768481 0.17729932 0.60999948 1.0786889e-38
0.4730781 0.17770264 0.60999942 1.0786889e-38
0.47746289 0.17749813 0.60999948 1.0786889e-38
0.48188263 0.17729238 0.6099996 1.0786889e-38
0.4874081 0.17769973 0.6099996 1.0786889e-38
0.49262375 0.17711003 0.6099996 1.0786889e-38
0.49806786 0.17781669 0.6099996 1.0786889e-38
0.50251007 0.17724729 0.60999966 1.0786889e-38
0.50725216 0.1773985 0.60999966 1.0786889e-38
0.51301748 0.17781512 0.60999972 1.0786889e-38
0.51751745 0.17709328 0.60999972 1.0786889e-38
0.52224308 0.17769411 0.60999972 1.0786889e-38
0.52796102 0.17732829 0.60999978 1.0786889e-38
0.53276545 0.17738764 0.60999984 1.0786889e-38
0.53761023 0.17799714 0.6099999 1.0786889e-38
0.54249054 0.17695387 0.6099999 1.0786889e-38
0.54741216 0.1775665 0.6099999 1.0786889e-38
0.35246322 0.18250816 0.60999864 1.0694693e-38
0.35706875 0.18248355 0.6099987 1.0694693e-38
0.36239567 0.18237019 0.6099987 1.0694693e-38
0.36710173 0.18257961 0.6099987 1.0694693e-38
0.37253025 0.18246566 0.6099987 1.0694693e-38
0.37736723 0.18249407 0.60999876 1.0694693e-38
0.38285959 0.18256298 0.60999876 1.0694693e-38
0.38706097 0.18255167 0.60999882 1.0694693e-38
0.39264545 0.18250008 0.60999882 1.0694693e-38
0.39782587 0.18238093 0.60999894 1.0694693e-38
0.40257901 0.18253861 0.60999888 1.0694693e-38
0.40693474 0.18252702 0.60999888 1.0694693e-38
0.41279298 0.18265355 0.60999912 1.0694693e-38
0.41809803 0.18235287 0.60999912 1.0694693e-38
0.42302838 0.18251337 0.60999912 1.0694693e-38
0.42754707 0.18250142 0.60999918 1.0694693e-38
0.43273896 0.18263446 0.60999918 1.0694693e-38
0.43732113 0.1823726 0.60999918 1.0694693e-38
0.4424375 0.18278816 0.60999924 1.0694693e-38
0.44726571 0.1822415 0.60999924 1.0694693e-38
0.452472 0.1826601 0.6099993 1.0786889e-38
0.45740071 0.18236293 0.60999936 1.0786889e-38
0.46268395 0.18252982 0.60999942 1.0786889e-38
0.46785778 0.18246308 0.60999948 1.0786889e-38
0.47307813 0.1823972 0.60999948 1.0786889e-38
0.47746286 0.18299554 0.60999948 1.0786889e-38
0.48170534 0.18231297 0.6099996 1.0786889e-38
0.48722902 0.18274453 0.6099996 1.0786889e-38
0.49244326 0.1821762 0.6099996 1.0786889e-38
0.49806786 0.18261105 0.6099996 1.0786889e-38
0.50277251 0.18278185 0.60999966 1.0786889e-38
0.50725216 0.18222953 0.60999966 1.0786889e-38
0.5128305 0.18296848 0.60999966 1.0786889e-38
0.51751745 0.18196531 0.60999972 1.0786889e-38
0.52224314 0.18258503 0.60999972 1.0786889e-38
0.52796078 0.18251508 0.60999978 1.0786889e-38
0.53276545 0.18232055 0.6099999 1.0786889e-38
0.53761029 0.18294944 0.6099999 1.0786889e-38
0.54249066 0.18192567 0.6099999 1.0786889e-38
0.54741216 0.18255796 0.60999995 1.0786889e-38
0.55137432 0.18473606 0.6099999 1.0786889e-38
0.56341952 0.18461443 0.60999995 1.0786889e-38
0.35219446 0.18747039 0.60999864 1.0694693e-38
0.35747457 0.1873825 0.6099987 1.0694693e-38
0.36213496 0.18761301 0.6099987 1.0694693e-38
0.36751536 0.18752505 0.6099987 1.0694693e-38
0.37225136 0.18752219 0.6099987 1.0694693e-38
0.37768468 0.18749642 0.60999876 1.0694693e-38
0.38272423 0.18740223 0.60999876 1.0694693e-38
0.38734758 0.18757915 0.60999876 1.0694693e-38
0.3923192 0.18763129 0.60999882 1.0694693e-38
0.39782587 0.18750726 0.60999888 1.0694693e-38
0.40243876 0.1874658 0.60999894 1.0694693e-38
0.4072319 0.18764624 0.60999888 1.0694693e-38
0.41256842 0.18749864 0.60999912 1.0694693e-38
0.41795358 0.18734865 0.60999912 1.0694693e-38
0.42289266 0.18738756 0.60986251 1.0325908e-38
0.42785537 0.18771578 0.60999912 1.0694693e-38
0.43257597 0.18744676 0.60999918 1.0694693e-38
0.43763477 0.18763204 0.60999918 1.0694693e-38
0.44243756 0.18736033 0.60999924 1.0694693e-38
0.44758484 0.18754682 0.60999924 1.0694693e-38
0.45247194 0.18727237 0.6099993 1.0694693e-38
0.45772576 0.18771498 0.60999936 1.0786889e-38
0.46268401 0.18718286 0.60999942 1.0786889e-38
0.46803126 0.18762898 0.60999948 1.0786889e-38
0.47290343 0.1873797 0.60999954 1.0786889e-38
0.47746289 0.18770759 0.60999948 1.0786889e-38
0.48188248 0.18753934 0.6099996 1.0786889e-38
0.48722902 0.1874956 0.6099996 1.0786889e-38
0.49262357 0.18744996 0.6099996 1.0786889e-38
0.4980678 0.18740541 0.6099996 1.0786889e-38
0.50264126 0.18803561 0.60999966 1.0786889e-38
0.5072521 0.18706056 0.60999966 1.0786889e-38
0.5128305 0.18782181 0.60999972 1.0786889e-38
0.51738298 0.18728283 0.60999972 1.0786889e-38
0.52224314 0.18747595 0.60999972 1.0786889e-38
0.5279609 0.18770176 0.60999978 1.0786889e-38
0.53276545 0.18725352 0.6099999 1.0786889e-38
0.53761029 0.18790171 0.6099999 1.0786889e-38
0.54249054 0.18689744 0.6099999 1.0786889e-38
0.5474121 0.18754938 0.6099999 1.0786889e-38
0.55336595 0.18833806 0.6099999 1.0786889e-38
0.56341952 0.18629956 0.60999995 1.0786889e-38
0.35246322 0.19233809 0.60999864 1.0694693e-38
0.35712951 0.19252749 0.6099987 1.0694693e-38
0.36240882 0.19252667 0.6099987 1.0694693e-38
0.36710176 0.19254592 0.6099987 1.0694693e-38
0.37253019 0.19248258 0.60999876 1.0694693e-38
0.37736723 0.19255607 0.60999876 1.0694693e-38
0.38272429 0.1924582 0.60999876 1.0694693e-38
0.38721105 0.19243777 0.60999888 1.0694693e-38
0.39249367 0.19253471 0.60999882 1.0694693e-38
0.39782593 0.19263358 0.60999894 1.0694693e-38
0.40229827 0.19239111 0.60999888 1.0694693e-38
0.4070904 0.1925935 0.60999894 1.0694693e-38
0.41234374 0.19234076 0.60999912 1.0694693e-38
0.41825691 0.19251993 0.60999912 1.0694693e-38
0.42272273 0.1923008 0.60999918 1.0694693e-38
0.42770857 0.19275501 0.60999918 1.0694693e-38
0.4324131 0.19225691 0.60999918 1.0694693e-38
0.43748537 0.19271487 0.60999918 1.0694693e-38
0.4422867 0.19246392 0.60999924 1.0694693e-38
0.44743294 0.19267403 0.60999924 1.0694693e-38
0.45237681 0.19238973 0.60974187 1.0602497e-38
0.4575555 0.19263247 0.60999936 1.0694693e-38
0.46252775 0.19237672 0.60999942 1.0694693e-38
0.46785796 0.19259018 0.60999942 1.0786889e-38
0.47307795 0.19256799 0.60999948 1.0786889e-38
0.47746289 0.19241966 0.60999954 1.0786889e-38
0.48206013 0.19276793 0.6099996 1.0786889e-38
0.48722902 0.19224668 0.6099996 1.0786889e-38
0.49280462 0.19272597 0.6099996 1.0786889e-38
0.49806786 0.19219977 0.6099996 1.0786889e-38
0.50264132 0.19284822 0.60999966 1.0786889e-38
0.50706714 0.19218722 0.60999966 1.0786889e-38
0.5128305 0.19267511 0.60999972 1.0786889e-38
0.51751745 0.1925208 0.60999972 1.0786889e-38
0.52224302 0.19236687 0.60999972 1.0786889e-38
0.52796096 0.19261552 0.60999978 1.0786889e-38
0.53276557 0.19218646 0.60999978 1.0786889e-38
0.53761029 0.192854 0.6099999 1.0786889e-38
0.54249066 0.19186924 0.6099999 1.0786889e-38
0.54741216 0.19254082 0.6099999 1.0786889e-38
0.55137432 0.1914124 0.6099999 1.0786889e-38
0.35232243 0.19751082 0.60999864 1.0694693e-38
0.3574357 0.19743882 0.6099987 1.0694693e-38
0.36213496 0.19753309 0.6099987 1.0694693e-38
0.3675153 0.19749524 0.6099987 1.0694693e-38
0.37225139 0.1975365 0.6099987 1.0694693e-38
0.37768471 0.19756141 0.60999876 1.0694693e-38
0.38272426 0.19751415 0.60999876 1.0694693e-38
0.38721111 0.19751467 0.60999876 1.0694693e-38
0.39266914 0.19744025 0.60999882 1.0694693e-38
0.39768666 0.19753768 0.60999888 1.0694693e-38
0.4025932 0.19749145 0.60999888 1.0694693e-38
0.40694878 0.19753885 0.60999888 1.0694693e-38
0.41279301 0.19749948 0.60999912 1.0694693e-38
0.41809803 0.19726942 0.60999912 1.0694693e-38
0.42302835 0.19749555 0.60999918 1.0694693e-38
0.42770854 0.19726835 0.60999918 1.0694693e-38
0.432724 0.19749641 0.60999918 1.0694693e-38
0.43748543 0.19726726 0.60999918 1.0694693e-38
0.44260335 0.19774899 0.60999924 1.0694693e-38
0.44724059 0.19740215 0.60979187 1.0602497e-38
0.45264083 0.19775209 0.60999924 1.0694693e-38
0.45731252 0.19678676 0.60999936 1.0694693e-38
0.46268433 0.19648807 0.60999942 1.0694693e-38
0.46751133 0.19627719 0.60999942 1.0786889e-38
0.47332793 0.19696471 0.60999948 1.0786889e-38
0.47746289 0.19713174 0.60999948 1.0786889e-38
0.48188263 0.19778781 0.60999954 1.0786889e-38
0.48705006 0.19728769 0.60999954 1.0786889e-38
0.49262387 0.19779137 0.6099996 1.0786889e-38
0.49788564 0.1972867 0.6099996 1.0786889e-38
0.50264138 0.19766086 0.60999966 1.0786889e-38
0.50725198 0.19752708 0.60999966 1.0786889e-38
0.51283056 0.19752845 0.60999972 1.0786889e-38
0.51765186 0.19776055 0.60999972 1.0786889e-38
0.52224302 0.19725779 0.60999972 1.0786889e-38
0.52815253 0.19777539 0.60999978 1.0786889e-38
0.53276545 0.19711937 0.60999984 1.0786889e-38
0.53761023 0.1978063 0.6099999 1.0786889e-38
0.54249066 0.196841 0.6099999 1.0786889e-38
0.54741216 0.19753225 0.6099999 1.0786889e-38
0.55270207 0.19771801 0.6099999 1.0786889e-38
0.56341952 0.19978055 0.60999995 1.0786889e-38
0.35218179 0.2026815 0.60999864 1.0694693e-38
0.35712951 0.20240092 0.6099987 1.0694693e-38
0.36240882 0.20244925 0.6099987 1.0694693e-38
0.36710182 0.20251229 0.6099987 1.0694693e-38
0.37253025 0.20249952 0.60999876 1.0694693e-38
0.37736723 0.20261809 0.60999876 1.0694693e-38
0.38272426 0.20257013 0.60999876 1.0694693e-38
0.38721105 0.20259152 0.60999882 1.0694693e-38
0.39227733 0.20238985 0.60999882 1.0694693e-38
0.39797911 0.20261809 0.60999888 1.0694693e-38
0.40228438 0.20244248 0.60999888 1.0694693e-38
0.4072462 0.20266208 0.60999888 1.0694693e-38
0.41238707 0.20254013 0.60999912 1.0694693e-38
0.418098 0.20249021 0.60999912 1.0694693e-38
0.42288283 0.20251198 0.60999912 1.0694693e-38
0.42756164 0.20230499 0.60999918 1.0694693e-38
0.43257591 0.20255606 0.60999918 1.0694693e-38
0.43733588 0.2023475 0.60999918 1.0694693e-38
0.44243753 0.2026009 0.60999924 1.0694693e-38
0.44728085 0.20239069 0.60999924 1.0694693e-38
0.45134726 0.20144641 0.60999936 1.0694693e-38
0.47746289 0.2002731 0.60999954 1.0786889e-38
0.48188266 0.20094097 0.60999948 1.0786889e-38
0.48782575 0.20157504 0.6099996 1.0786889e-38
0.49262375 0.20256397 0.6099996 1.0786889e-38
0.49806762 0.2025868 0.6099996 1.0786889e-38
0.50264126 0.20247348 0.60999966 1.0786889e-38
0.50725216 0.20262644 0.60999966 1.0786889e-38
0.5128305 0.20238177 0.60999972 1.0786889e-38
0.51751745 0.20307751 0.60999972 1.0786889e-38
0.52224308 0.20214868 0.60999972 1.0786889e-38
0.52796102 0.20298983 0.60999978 1.0786889e-38
0.53276545 0.20205234 0.6099999 1.0786889e-38
0.53761029 0.2027586 0.6099999 1.0786889e-38
0.54235065 0.20226569 0.60999995 1.0786889e-38
0.54741216 0.20252366 0.6099999 1.0786889e-38
0.55137432 0.20393057 0.6099999 1.0786889e-38
0.35245031 0.2075531 0.60999864 1.0694693e-38
0.35727191 0.20750308 0.6099987 1.0694693e-38
0.36213496 0.20745315 0.6099987 1.0694693e-38
0.36751533 0.20746544 0.6099987 1.0694693e-38
0.37225139 0.20755084 0.6099987 1.0694693e-38
0.37768471 0.20762634 0.60999876 1.0694693e-38
0.38272429 0.20762609 0.60999876 1.0694693e-38
0.3870745 0.20744704 0.60999876 1.0694693e-38
0.3927106 0.20745961 0.60999882 1.0694693e-38
0.39767286 0.20754699 0.60999888 1.0694693e-38
0.40257895 0.20754553 0.60999888 1.0694693e-38
0.4070904 0.2073635 0.60999894 1.0694693e-38
0.41256806 0.20753589 0.60999912 1.0694693e-38
0.41809803 0.20771101 0.60999912 1.0694693e-38
0.42272273 0.20727892 0.60999912 1.0694693e-38
0.42787018 0.20752475 0.60999912 1.0694693e-38
0.4324131 0.20736404 0.60999918 1.0694693e-38
0.43764988 0.2076124 0.60999918 1.0694693e-38
0.4422718 0.20745066 0.60999924 1.0694693e-38
0.446318 0.20678103 0.60999924 1.0694693e-38
0.49443114 0.20602363 0.6099996 1.0786889e-38
0.49852374 0.20625281 0.60999966 1.0786889e-38
0.50264132 0.206484 0.6099996 1.0786889e-38
0.50771511 0.2072608 0.60999966 1.0694693e-38
0.5128305 0.20723513 0.60999966 1.0786889e-38
0.51751739 0.20794953 0.60999972 1.0694693e-38
0.52224314 0.20703961 0.60999972 1.0786889e-38
0.52796096 0.20790358 0.60999972 1.0786889e-38
0.53276557 0.20698525 0.60999984 1.0786889e-38
0.53761023 0.20771089 0.6099999 1.0786889e-38
0.54249066 0.20761256 0.6099999 1.0786889e-38
0.54741216 0.20751514 0.6099999 1.0786889e-38
0.55137432 0.20893782 0.6099999 1.0786889e-38
0.35218179 0.2125088 0.60999864 1.0694693e-38
0.35741356 0.21260749 0.6099987 1.0694693e-38
0.36240882 0.21237187 0.6099987 1.0694693e-38
0.36710176 0.21247862 0.6099987 1.0694693e-38
0.37253019 0.21251644 0.6099987 1.0694693e-38
0.37736723 0.21268009 0.60999876 1.0694693e-38
0.38258883 0.21246099 0.60999876 1.0694693e-38
0.38736132 0.21248107 0.60999882 1.0694693e-38
0.39227733 0.21259081 0.60999882 1.0694693e-38
0.39796507 0.21263012 0.60999888 1.0694693e-38
0.40243876 0.21246952 0.60999894 1.0694693e-38
0.40694878 0.21230699 0.60999888 1.0694693e-38
0.41274998 0.21253388 0.60999912 1.0694693e-38
0.41793928 0.21245697 0.60999912 1.0694693e-38
0.42302838 0.21247773 0.60999918 1.0694693e-38
0.42770857 0.21231286 0.60999912 1.0694693e-38
0.432724 0.21260767 0.60999918 1.0694693e-38
0.43748543 0.21244192 0.60999918 1.0694693e-38
0.44160816 0.21236873 0.60999924 1.0694693e-38
0.51283056 0.21047063 0.60999972 1.0694693e-38
0.51751745 0.21119758 0.60999972 1.0694693e-38
0.52248007 0.21176381 0.60999972 1.0694693e-38
0.52796102 0.21281736 0.60999972 1.0694693e-38
0.53276545 0.21191819 0.60999984 1.0694693e-38
0.53761029 0.21266316 0.6099999 1.0694693e-38
0.5424906 0.21258433 0.6099999 1.0694693e-38
0.54741216 0.21250655 0.60999995 1.0694693e-38
0.55137432 0.21311057 0.6099999 1.0694693e-38
0.56341952 0.21326154 0.60999995 1.0786889e-38
0.70798159 0.21474588 0.60659021 1.0786889e-38
0.35245031 0.21738291 0.60999864 1.0694693e-38
0.35710794 0.21756497 0.6099987 1.0694693e-38
0.36226538 0.21759069 0.6099987 1.0694693e-38
0.3675153 0.21743563 0.6099987 1.0694693e-38
0.37225136 0.21756518 0.60999876 1.0694693e-38
0.37753701 0.21752045 0.60999876 1.0694693e-38
0.38287324 0.21747561 0.60999876 1.0694693e-38
0.3870745 0.21759953 0.60999876 1.0694693e-38
0.3927106 0.21766461 0.60999882 1.0694693e-38
0.39782593 0.21753292 0.60999894 1.0694693e-38
0.40229827 0.21739167 0.60999888 1.0694693e-38
0.4072462 0.21743417 0.60999888 1.0694693e-38
0.4123871 0.21738063 0.60999912 1.0694693e-38
0.41824234 0.21763507 0.60999912 1.0694693e-38
0.42288277 0.21749224 0.60999912 1.0694693e-38
0.42756164 0.21734756 0.60999912 1.0694693e-38
0.43257594 0.21766537 0.60999918 1.0694693e-38
0.43732113 0.21726927 0.60999918 1.0694693e-38
0.44078046 0.21603617 0.60999924 1.0694693e-38
0.52923751 0.21684138 0.60999984 1.0694693e-38
0.53276545 0.21685116 0.60999984 1.0694693e-38
0.53761023 0.21761547 0.6099999 1.0694693e-38
0.54249066 0.21755612 0.6099999 1.0694693e-38
0.54741216 0.217498 0.60999995 1.0694693e-38
0.55137432 0.21728328 0.6099999 1.0694693e-38
0.7352652 0.21939206 0.60541219 1.0694693e-38
0.35219446 0.22256832 0.60999864 1.0694693e-38
0.35741362 0.22248356 0.6099987 1.0694693e-38
0.36226538 0.22255129 0.6099987 1.0694693e-38
0.36710176 0.22244494 0.6099987 1.0694693e-38
0.37253025 0.22253336 0.60999876 1.0694693e-38
0.37770769 0.22236297 0.60999876 1.0694693e-38
0.38258877 0.22257166 0.60999876 1.0694693e-38
0.38736135 0.22263622 0.60999882 1.0694693e-38
0.39231917 0.2226073 0.60999882 1.0694693e-38
0.39768666 0.22243385 0.60999888 1.0694693e-38
0.4025932 0.2224987 0.60999888 1.0694693e-38
0.4069348 0.2224004 0.60999888 1.0694693e-38
0.41256806 0.22237881 0.60999912 1.0694693e-38
0.41809803 0.22262757 0.60999912 1.0694693e-38
0.42273712 0.22250476 0.60999912 1.0694693e-38
0.42787018 0.22257142 0.60999918 1.0694693e-38
0.43241304 0.22247116 0.60999918 1.0694693e-38
0.43649912 0.22197971 0.60999918 1.0694693e-38
0.53373039 0.22029456 0.6099999 1.0694693e-38
0.53788823 0.22214146 0.60999995 1.0694693e-38
0.54249066 0.22252791 0.6099999 1.0694693e-38
0.54741216 0.22248946 0.6099999 1.0694693e-38
0.55187225 0.22278702 0.6099999 1.0694693e-38
0.35246322 0.22744496 0.60999864 1.0694693e-38
0.35706878 0.22761652 0.6099987 1.0694693e-38
0.36226535 0.22751194 0.6099987 1.0694693e-38
0.36751536 0.22740586 0.6099987 1.0694693e-38
0.37225139 0.22757952 0.6099987 1.0694693e-38
0.37738964 0.2274126 0.6099987 1.0694693e-38
0.3828733 0.22758892 0.60999876 1.0694693e-38
0.38706094 0.22751203 0.60999882 1.0694693e-38
0.39249367 0.22751631 0.60999882 1.0694693e-38
0.39797911 0.22752091 0.60999888 1.0694693e-38
0.40228432 0.22744271 0.60999888 1.0694693e-38
0.40723184 0.22753033 0.60999888 1.0694693e-38
0.41275004 0.22737923 0.60999906 1.0694693e-38
0.41793928 0.22737138 0.60999912 1.0694693e-38
0.4230431 0.22770774 0.60999918 1.0694693e-38
0.42770857 0.22735733 0.60999918 1.0694693e-38
0.43239462 0.2273688 0.60999918 1.0694693e-38
0.54347074 0.22600357 0.6099999 1.0694693e-38
0.54741216 0.22748089 0.60999995 1.0694693e-38
0.55137432 0.22813234 0.6099999 1.0694693e-38
0.56341952 0.22674254 0.60999995 1.0694693e-38
0.35219446 0.23239574 0.60999864 1.0694693e-38
0.35747465 0.23253281 0.60999864 1.0694693e-38
0.36226538 0.23247258 0.60999864 1.0694693e-38
0.36710176 0.23241134 0.6099987 1.0694693e-38
0.37253028 0.23255032 0.6099987 1.0694693e-38
0.37770769 0.23242815 0.6099987 1.0694693e-38
0.38257542 0.2324433 0.6099987 1.0694693e-38
0.38734749 0.23255135 0.60999876 1.0694693e-38
0.39266914 0.23242749 0.60999876 1.0694693e-38
0.39767292 0.23244289 0.60999882 1.0694693e-38
0.40257904 0.23255244 0.60999888 1.0694693e-38
0.4070904 0.23247252 0.60999888 1.0694693e-38
0.41234377 0.23240866 0.60999906 1.0694693e-38
0.41824237 0.23255354 0.60999912 1.0694693e-38
0.42288285 0.23247249 0.60999912 1.0694693e-38
0.42756173 0.23239011 0.60999912 1.0694693e-38
0.43211016 0.23290433 0.60999912 1.0694693e-38
0.54872942 0.23158407 0.6099999 1.0694693e-38
0.55187225 0.2323876 0.6099999 1.0694693e-38
0.35246322 0.23727489 0.60999858 1.0694693e-38
0.35706881 0.23748937 0.60999864 1.0694693e-38
0.36226538 0.23743321 0.60999864 1.0694693e-38
0.36751533 0.23737602 0.6099987 1.0694693e-38
0.37225145 0.23759384 0.6099987 1.0694693e-38
0.3773897 0.23747483 0.6099987 1.0694693e-38
0.38285962 0.23746319 0.6099987 1.0694693e-38
0.38721105 0.23740438 0.60999876 1.0694693e-38
0.39227733 0.23736456 0.60999876 1.0694693e-38
0.39796507 0.23753262 0.60999876 1.0694693e-38
0.40243873 0.23747328 0.60999894 1.0694693e-38
0.40694886 0.23741278 0.60999888 1.0694693e-38
0.41279307 0.23758344 0.609999 1.0694693e-38
0.41809809 0.23754413 0.60999912 1.0694693e-38
0.42273712 0.23748308 0.60999912 1.0694693e-38
0.42787027 0.23761806 0.60999912 1.0694693e-38
0.43257591 0.23730744 0.60999912 1.0694693e-38
0.43638977 0.23904188 0.60999918 1.0694693e-38
0.55336595 0.23765436 0.6099999 1.0694693e-38
0.35232246 0.24244159 0.60999864 1.0694693e-38
0.3574746 0.24240944 0.60999864 1.0694693e-38
0.36212206 0.24264726 0.60999864 1.0694693e-38
0.36710176 0.24237762 0.60999864 1.0694693e-38
0.37253028 0.24256729 0.6099987 1.0694693e-38
0.37770775 0.24249333 0.6099987 1.0694693e-38
0.38257536 0.24255386 0.6099987 1.0694693e-38
0.38721099 0.24248125 0.60999876 1.0694693e-38
0.3927106 0.24244818 0.60999876 1.0694693e-38
0.39782593 0.24243228 0.60999888 1.0694693e-38
0.40229827 0.24239221 0.60999888 1.0694693e-38
0.4072462 0.24254671 0.60999888 1.0694693e-38
0.4123871 0.24260958 0.60999906 1.0694693e-38
0.41793936 0.24228582 0.60999912 1.0694693e-38
0.42304301 0.24269009 0.60999912 1.0694693e-38
0.42770863 0.24240187 0.60999912 1.0694693e-38
0.43242776 0.24236058 0.60999912 1.0694693e-38
0.43727994 0.24294138 0.60999918 1.0694693e-38
0.44078052 0.24419045 0.60999918 1.0694693e-38
0.35218179 0.24760631 0.60999858 1.0694693e-38
0.3571296 0.24753648 0.60999864 1.0694693e-38
0.36239567 0.24757506 0.60999864 1.0694693e-38
0.36751536 0.24734624 0.6099987 1.0694693e-38
0.37225142 0.24760818 0.6099987 1.0694693e-38
0.37732664 0.2473594 0.6099987 1.0694693e-38
0.38285959 0.24757637 0.6099987 1.0694693e-38
0.38721105 0.24755812 0.60999876 1.0694693e-38
0.39227739 0.24756554 0.60999876 1.0694693e-38
0.39768669 0.24733004 0.60999882 1.0694693e-38
0.40259323 0.2475059 0.60999888 1.0694693e-38
0.4069348 0.24750593 0.60999888 1.0694693e-38
0.41256809 0.24761181 0.60999906 1.0694693e-38
0.41824242 0.247472 0.60999912 1.0694693e-38
0.42288283 0.24745277 0.60999912 1.0694693e-38
0.42756167 0.24743266 0.60999912 1.0694693e-38
0.43273902 0.24761382 0.60999912 1.0694693e-38
0.43748549 0.24734361 0.60999918 1.0694693e-38
0.44225314 0.24777794 0.60999918 1.0694693e-38
0.44709831 0.24863228 0.60999918 1.0694693e-38
0.45078582 0.24997313 0.6099993 1.0694693e-38
0.56341952 0.24864915 0.60999995 1.0694693e-38
0.35245031 0.25248936 0.60999864 1.0694693e-38
0.35727197 0.25264475 0.60999864 1.0694693e-38
0.36212206 0.25256723 0.60999864 1.0694693e-38
0.36716369 0.25252017 0.6099987 1.0694693e-38
0.37253028 0.25258419 0.6099987 1.0694693e-38
0.37774807 0.25237742 0.6099987 1.0694693e-38
0.38257536 0.25266439 0.6099987 1.0694693e-38
0.38707447 0.25240803 0.60999876 1.0694693e-38
0.3927106 0.25265318 0.60999876 1.0694693e-38
0.39797911 0.2524237 0.60999876 1.0694693e-38
0.40228438 0.25244293 0.60999888 1.0694693e-38
0.40723193 0.25264254 0.60999888 1.0694693e-38
0.41274998 0.25261635 0.609999 1.0694693e-38
0.41809809 0.25246069 0.60999912 1.0694693e-38
0.42273715 0.2524614 0.60999912 1.0694693e-38
0.42787027 0.25266474 0.60999912 1.0694693e-38
0.43257597 0.25241676 0.60999912 1.0694693e-38
0.43733597 0.2524173 0.60999918 1.0694693e-38
0.4426035 0.25262305 0.60999918 1.0694693e-38
0.44743294 0.25237167 0.60999924 1.0694693e-38
0.45226109 0.25314659 0.60999924 1.0694693e-38
0.45713025 0.2539292 0.6099993 1.0694693e-38
0.54938906 0.25446904 0.60999995 1.0694693e-38
0.35219446 0.25766623 0.60999864 1.0694693e-38
0.35727146 0.25758216 0.60999864 1.0694693e-38
0.36239567 0.25749755 0.60999864 1.0694693e-38
0.36747572 0.25749555 0.60999864 1.0694693e-38
0.37225145 0.25762251 0.6099987 1.0694693e-38
0.37732658 0.25742105 0.6099987 1.0694693e-38
0.38285959 0.25768951 0.6099987 1.0694693e-38
0.38736129 0.25745386 0.60999876 1.0694693e-38
0.39231917 0.25758338 0.60999876 1.0694693e-38
0.39767292 0.25733873 0.60999882 1.0694693e-38
0.40257901 0.25755933 0.60999888 1.0694693e-38
0.40709043 0.25758153 0.60999894 1.0694693e-38
0.4123871 0.25745007 0.609999 1.0694693e-38
0.41795361 0.25744736 0.60999912 1.0694693e-38
0.42304307 0.25767249 0.60999912 1.0694693e-38
0.42770866 0.25744635 0.60999912 1.0694693e-38
0.43242776 0.2574679 0.60999912 1.0694693e-38
0.43764991 0.257696 0.60999918 1.0694693e-38
0.44243762 0.25746703 0.60999918 1.0694693e-38
0.4472658 0.25723535 0.60999924 1.0694693e-38
0.45264077 0.25772014 0.60999924 1.0694693e-38
0.45755556 0.25748825 0.60999924 1.0694693e-38
0.46225494 0.25766712 0.6099993 1.0694693e-38
0.46742511 0.25910312 0.60999942 1.0694693e-38
0.54859746 0.25798556 0.6099999 1.0694693e-38
0.55237013 0.25752634 0.6099999 1.0694693e-38
0.60794038 0.25903827 0.60624033 5.5353307e-39
0.35246322 0.26255184 0.60999858 1.0694693e-38
0.357272 0.26251945 0.60999864 1.0694693e-38
0.36212206 0.26248711 0.60999864 1.0694693e-38
0.36716369 0.26248708 0.6099987 1.0694693e-38
0.37253025 0.26260111 0.6099987 1.0694693e-38
0.3777481 0.26244301 0.6099987 1.0694693e-38
0.38272426 0.26251942 0.6099987 1.0694693e-38
0.38707447 0.2625604 0.60999876 1.0694693e-38
0.3924937 0.26249796 0.60999876 1.0694693e-38
0.39796507 0.26243508 0.60999882 1.0694693e-38
0.40243876 0.26247701 0.60999888 1.0694693e-38
0.40694883 0.26251861 0.60999888 1.0694693e-38
0.41256806 0.26245472 0.60999906 1.0694693e-38
0.41825694 0.26263767 0.60999912 1.0694693e-38
0.42288285 0.26243299 0.60999912 1.0694693e-38
0.42756173 0.26247516 0.60999912 1.0694693e-38
0.43273896 0.26272523 0.60999912 1.0694693e-38
0.43748549 0.26251829 0.60999918 1.0694693e-38
0.44227189 0.26230884 0.60999918 1.0694693e-38
0.4475849 0.2625615 0.60999918 1.0694693e-38
0.45247206 0.26260585 0.60999924 1.0694693e-38
0.45738545 0.26239398 0.6099993 1.0694693e-38
0.46268377 0.26240626 0.6099993 1.0694693e-38
0.46785796 0.2626957 0.60999942 1.0694693e-38
0.47249553 0.26338881 0.60999942 1.0694693e-38
0.47746292 0.26467133 0.60999942 1.0694693e-38
0.54347074 0.26415059 0.6099999 1.0694693e-38
0.54741216 0.26242098 0.6099999 1.0694693e-38
0.55336595 0.26189458 0.6099999 1.0694693e-38
0.55736816 0.26098213 0.6099999 1.0694693e-38
0.56274498 0.2631247 0.60999995 1.0694693e-38
0.35219446 0.26749364 0.60999864 1.0694693e-38
0.35727146 0.26745692 0.60999864 1.0694693e-38
0.36239567 0.26742005 0.60999864 1.0694693e-38
0.36730883 0.26764578 0.6099987 1.0694693e-38
0.37225142 0.26763684 0.6099987 1.0694693e-38
0.37732658 0.26748264 0.6099987 1.0694693e-38
0.38258877 0.26734751 0.60999876 1.0694693e-38
0.38736129 0.26760897 0.60999876 1.0694693e-38
0.39249426 0.26759931 0.60999876 1.0694693e-38
0.39767292 0.26758999 0.60999882 1.0694693e-38
0.40229833 0.26739275 0.60999888 1.0694693e-38
0.4072462 0.26765925 0.60999888 1.0694693e-38
0.41274998 0.26746169 0.60999906 1.0694693e-38
0.41809812 0.26737723 0.60999912 1.0694693e-38
0.42273715 0.26743972 0.60999912 1.0694693e-38
0.42787033 0.26771137 0.60999912 1.0694693e-38
0.43257597 0.26752606 0.60999912 1.0694693e-38
0.43732119 0.26733845 0.60999918 1.0694693e-38
0.44243747 0.2673727 0.60999924 1.0694693e-38
0.44743294 0.26767877 0.60999924 1.0694693e-38
0.45230341 0.26748931 0.60999924 1.0694693e-38
0.45755538 0.26752475 0.60999924 1.0694693e-38
0.46285576 0.26756111 0.60999924 1.0694693e-38
0.46785799 0.26736942 0.60999936 1.0694693e-38
0.47307813 0.26741999 0.60999942 1.0694693e-38
